-10.770626 5.313126 -45.843460
-10.846434 5.313126 -45.843460
-0.818438 0.309932 -2.674202
-0.822860 0.309932 -2.674202
-0.827282 0.309932 -2.674202
-0.831704 0.309932 -2.674202
-1.760265 0.652489 -5.629899
-1.769575 0.652489 -5.629899
-1.572038 0.576618 -4.975259
-1.396261 0.509478 -4.395948
-1.272767 0.462011 -3.986388
-1.170323 0.422635 -3.646639
-1.083969 0.389444 -3.360254
-1.083851 0.387415 -3.342752
-3.976590 1.352432 -11.669244
-3.433965 1.162246 -10.028256
-3.345986 1.127027 -9.724370
-27.708439 7.438376 -64.180840
-21.395823 5.721828 -49.369877
-17.450438 4.648985 -40.113026
-16.486372 4.375515 -37.753437
-15.629423 4.132432 -35.656025
-14.119547 3.719188 -32.090420
-12.884192 3.381080 -29.173111
-12.932434 3.381080 -29.173111
-12.980675 3.381080 -29.173111
-24.151674 6.198647 -53.484035
-13.851495 3.542084 -30.562305
-9.731423 2.479459 -21.393614
-9.156375 2.324493 -20.056513
-7.738561 1.957467 -16.889696
-7.766490 1.957467 -16.889696
-7.404698 1.859594 -16.045210
-7.822348 1.957467 -16.889696
-9.322205 2.324493 -20.056513
-11.087847 2.754954 -23.770681
-11.127154 2.754954 -23.770681
-10.767659 2.656563 -22.921730
-11.205770 2.754954 -23.770681
-13.800776 3.381080 -29.173111
-11.284385 2.754954 -23.770681
-10.542748 2.564957 -22.131325
-10.226700 2.479459 -21.393614
-10.262077 2.479459 -21.393614
-10.652538 2.564957 -22.131325
-10.689136 2.564957 -22.131325
-1.437534 0.309932 -2.674202
-1.441956 0.309932 -2.674202
-1.446378 0.309932 -2.674202
-1.450800 0.309932 -2.674202
-1.455222 0.309932 -2.674202
-1.490599 0.309932 -2.674202
-1.495021 0.309932 -2.674202
-1.499443 0.309932 -2.674202
-1.503865 0.309932 -2.674202
-1.508288 0.309932 -2.674202
-1.512710 0.309932 -2.674202
-1.517132 0.309932 -2.674202
-1.521554 0.309932 -2.674202
-1.525976 0.309932 -2.674202
-1.539242 0.309932 -2.674202
-1.543664 0.309932 -2.674202
-1.548087 0.309932 -2.674202
1.534611 0.436443 -3.820288
1.528294 0.436443 -3.820288
1.404902 0.402871 -3.526420
1.273154 0.366612 -3.209042
1.092972 0.316045 -2.766416
1.088397 0.316045 -2.766416
1.571543 0.458265 -4.011302
1.564910 0.458265 -4.011302
1.558277 0.458265 -4.011302
11.204871 4.582654 -40.113026
11.138539 4.582654 -40.113026
11.072207 4.582654 -40.113026
0.707192 0.305510 -2.674202
0.702770 0.305510 -2.674202
0.698348 0.305510 -2.674202
0.693926 0.305510 -2.674202
0.689504 0.305510 -2.674202
0.693210 0.321590 -2.814949
0.654127 0.305510 -2.674202
0.649705 0.305510 -2.674202
0.645283 0.305510 -2.674202
0.640861 0.305510 -2.674202
0.636439 0.305510 -2.674202
0.632016 0.305510 -2.674202
0.627594 0.305510 -2.674202
0.623172 0.305510 -2.674202
0.494931 0.305510 -2.674202
0.490509 0.305510 -2.674202
0.486087 0.305510 -2.674202
0.481664 0.305510 -2.674202
0.477242 0.305510 -2.674202
0.472820 0.305510 -2.674202
0.468398 0.305510 -2.674202
0.463976 0.305510 -2.674202
0.459554 0.305510 -2.674202
0.455132 0.305510 -2.674202
0.450710 0.305510 -2.674202
0.446288 0.305510 -2.674202
0.441865 0.305510 -2.674202
0.437443 0.305510 -2.674202
0.433021 0.305510 -2.674202
0.428599 0.305510 -2.674202
0.424177 0.305510 -2.674202
0.419755 0.305510 -2.674202
0.415333 0.305510 -2.674202
0.410911 0.305510 -2.674202
0.406489 0.305510 -2.674202
0.402066 0.305510 -2.674202
0.397644 0.305510 -2.674202
0.983055 0.763776 -6.685504
0.972000 0.763776 -6.685504
0.931825 0.740631 -6.482913
0.921105 0.740631 -6.482913
8.694417 7.332246 -64.180840
0.961616 0.852587 -7.462889
0.887366 0.796983 -6.976179
0.822207 0.748188 -6.549066
0.771990 0.711869 -6.231150
0.761686 0.711869 -6.231150
0.716596 0.678912 -5.942670
0.479425 0.467022 -4.087952
0.466720 0.461148 -4.036531
0.454330 0.455419 -3.986388
0.444974 0.452608 -3.961780
0.634148 0.654665 -5.730433
0.632128 0.672683 -5.888151
0.611177 0.660563 -5.782058
0.601615 0.660563 -5.782058
0.586768 0.654665 -5.730433
0.582493 0.660563 -5.782058
0.544007 0.648871 -5.679720
0.507659 0.616155 -5.393348
0.482522 0.596118 -5.217955
0.455382 0.572832 -5.014128
0.440212 0.564019 -4.936988
0.407002 0.531322 -4.650785
0.372331 0.495422 -4.336544
0.342048 0.464066 -4.062078
0.317259 0.439057 -3.843164
0.310904 0.439057 -3.843164
0.214756 0.330281 -2.891029
0.194227 0.305510 -2.674202
0.189805 0.305510 -2.674202
0.026187 0.305510 -2.674202
0.022612 0.317413 -2.778391
0.018175 0.320185 -2.802657
0.013600 0.321590 -2.814949
0.009105 0.327332 -2.865216
0.004703 0.352512 -3.085617
-0.000403 0.355934 -3.115575
-0.005475 0.350825 -3.070854
-0.044567 0.305510 -2.674202
-0.048989 0.305510 -2.674202
-0.053412 0.305510 -2.674202
-0.057834 0.305510 -2.674202
-0.062256 0.305510 -2.674202
-0.066678 0.305510 -2.674202
-0.071100 0.305510 -2.674202
-0.075522 0.305510 -2.674202
-0.079944 0.305510 -2.674202
-0.091620 0.331776 -2.904110
-0.096422 0.331776 -2.904110
-0.101684 0.333284 -2.917311
-0.110009 0.344237 -3.013185
-0.127960 0.352512 -3.085617
-0.133063 0.352512 -3.085617
-0.138165 0.352512 -3.085617
-0.142582 0.350825 -3.070854
-0.147660 0.350825 -3.070854
-0.154963 0.355934 -3.115575
-0.160115 0.355934 -3.115575
-0.165267 0.355934 -3.115575
-0.171250 0.357671 -3.130773
-0.174722 0.354215 -3.100524
-0.178985 0.352512 -3.085617
-0.184977 0.354215 -3.100524
-0.194809 0.362982 -3.177269
-0.205141 0.372195 -3.257911
-0.216011 0.381888 -3.342752
-0.233711 0.402871 -3.526420
-0.252004 0.423829 -3.709875
-0.256655 0.421393 -3.688554
-0.262755 0.421393 -3.688554
-0.212608 0.305510 -2.674202
-0.217030 0.305510 -2.674202
-0.221452 0.305510 -2.674202
-0.225874 0.305510 -2.674202
-0.230296 0.305510 -2.674202
-0.234718 0.305510 -2.674202
-0.239140 0.305510 -2.674202
-0.316751 0.352512 -3.085617
-0.321853 0.352512 -3.085617
-0.323842 0.349155 -3.056231
-0.328896 0.349155 -3.056231
-0.337160 0.352512 -3.085617
-0.305472 0.305510 -2.674202
-0.309894 0.305510 -2.674202
-0.314316 0.305510 -2.674202
-0.318738 0.305510 -2.674202
-0.323161 0.305510 -2.674202
-0.327583 0.305510 -2.674202
-0.332005 0.305510 -2.674202
-0.336427 0.305510 -2.674202
-0.340849 0.305510 -2.674202
-0.345271 0.305510 -2.674202
-0.349693 0.305510 -2.674202
-0.354115 0.305510 -2.674202
-0.358537 0.305510 -2.674202
-0.432965 0.347500 -3.041746
-0.416292 0.330281 -2.891029
-0.440935 0.345861 -3.027398
-0.411041 0.318793 -2.790471
-0.398337 0.305510 -2.674202
-0.402759 0.305510 -2.674202
-0.407181 0.305510 -2.674202
-0.411603 0.305510 -2.674202
-0.487054 0.357671 -3.130773
-0.485131 0.352512 -3.085617
-0.497408 0.357671 -3.130773
-0.446980 0.305510 -2.674202
-0.451402 0.305510 -2.674202
-0.455824 0.305510 -2.674202
-0.460246 0.305510 -2.674202
-0.464668 0.305510 -2.674202
-0.469090 0.305510 -2.674202
-0.473513 0.305510 -2.674202
-0.477935 0.305510 -2.674202
-0.482357 0.305510 -2.674202
-0.486779 0.305510 -2.674202
-0.491201 0.305510 -2.674202
-0.495623 0.305510 -2.674202
-0.500045 0.305510 -2.674202
-0.504467 0.305510 -2.674202
-0.508889 0.305510 -2.674202
-0.513312 0.305510 -2.674202
-0.517734 0.305510 -2.674202
-10.770626 5.237319 -45.843460
-10.846434 5.237319 -45.843460
-12.333887 5.640189 -49.369877
-16.140184 7.332246 -64.180840
-0.814015 0.305510 -2.674202
-0.818438 0.305510 -2.674202
-0.822860 0.305510 -2.674202
-0.827282 0.305510 -2.674202
-0.831704 0.305510 -2.674202
-0.836126 0.305510 -2.674202
-1.528269 0.555473 -4.862185
-1.524758 0.551297 -4.825627
-1.396261 0.502209 -4.395948
-1.393983 0.498792 -4.366044
-1.170323 0.416605 -3.646639
-1.078323 0.381888 -3.342752
-1.078235 0.379909 -3.325432
-1.010438 0.354215 -3.100524
-0.946946 0.330281 -2.891029
-6.036666 2.094927 -18.337383
-4.556509 1.527551 -13.371009
-3.995887 1.333136 -11.669244
-3.450548 1.145663 -10.028256
-3.467131 1.145663 -10.028256
-23.178808 6.110205 -53.484035
-17.450438 4.582654 -40.113026
-17.516769 4.582654 -40.113026
-15.629423 4.073470 -35.656025
-15.688385 4.073470 -35.656025
-13.497725 3.491546 -30.562305
-12.932434 3.332839 -29.173111
-12.980675 3.332839 -29.173111
-17.914761 4.582654 -40.113026
-23.974789 6.110205 -53.484035
-28.875877 7.332246 -64.180840
-28.982008 7.332246 -64.180840
-19.392094 4.888164 -42.787228
-17.173100 4.313086 -37.753437
-9.156375 2.291327 -20.056513
-9.189541 2.291327 -20.056513
-7.976395 1.981688 -17.346174
-8.005079 1.981688 -17.346174
-9.289039 2.291327 -20.056513
-11.473482 2.820095 -24.684938
-14.255802 3.491546 -30.562305
-14.306341 3.491546 -30.562305
-11.595942 2.820095 -24.684938
-13.154599 3.187933 -27.904715
-14.559033 3.491546 -30.562305
-11.800038 2.820095 -24.684938
-17.103462 4.073470 -35.656025
-1.437534 0.305510 -2.674202
-1.441956 0.305510 -2.674202
-1.446378 0.305510 -2.674202
-1.450800 0.305510 -2.674202
-1.455222 0.305510 -2.674202
-1.459644 0.305510 -2.674202
-1.495021 0.305510 -2.674202
-1.499443 0.305510 -2.674202
-1.503865 0.305510 -2.674202
-1.508288 0.305510 -2.674202
-1.512710 0.305510 -2.674202
-1.517132 0.305510 -2.674202
-1.539242 0.305510 -2.674202
-1.543664 0.305510 -2.674202
-1.548087 0.305510 -2.674202
1.534611 0.430126 -3.820288
1.528294 0.430126 -3.820288
1.273154 0.361306 -3.209042
1.092972 0.311470 -2.766416
1.088397 0.311470 -2.766416
1.571543 0.451632 -4.011302
1.564910 0.451632 -4.011302
1.558277 0.451632 -4.011302
11.204871 4.516322 -40.113026
11.138539 4.516322 -40.113026
11.072207 4.516322 -40.113026
0.707192 0.301088 -2.674202
0.702770 0.301088 -2.674202
0.698348 0.301088 -2.674202
0.693926 0.301088 -2.674202
0.689504 0.301088 -2.674202
0.693210 0.316935 -2.814949
0.654127 0.301088 -2.674202
0.649705 0.301088 -2.674202
0.645283 0.301088 -2.674202
0.640861 0.301088 -2.674202
0.636439 0.301088 -2.674202
0.632016 0.301088 -2.674202
0.627594 0.301088 -2.674202
0.623172 0.301088 -2.674202
0.995316 0.494939 -4.395948
0.988046 0.494939 -4.395948
0.490509 0.301088 -2.674202
0.486087 0.301088 -2.674202
0.481664 0.301088 -2.674202
0.477242 0.301088 -2.674202
0.472820 0.301088 -2.674202
0.468398 0.301088 -2.674202
0.463976 0.301088 -2.674202
0.459554 0.301088 -2.674202
0.455132 0.301088 -2.674202
0.450710 0.301088 -2.674202
0.446288 0.301088 -2.674202
0.441865 0.301088 -2.674202
0.437443 0.301088 -2.674202
0.433021 0.301088 -2.674202
0.428599 0.301088 -2.674202
0.424177 0.301088 -2.674202
0.419755 0.301088 -2.674202
0.415333 0.301088 -2.674202
0.410911 0.301088 -2.674202
0.406489 0.301088 -2.674202
0.402066 0.301088 -2.674202
0.397644 0.301088 -2.674202
0.962993 0.737359 -6.549066
0.952163 0.737359 -6.549066
0.922507 0.722611 -6.418084
0.911894 0.722611 -6.418084
1.033737 0.903264 -8.022605
0.917277 0.811923 -7.211330
0.839337 0.752720 -6.685504
0.811378 0.737359 -6.549066
0.776769 0.715457 -6.354539
0.466720 0.454473 -4.036531
0.457170 0.451632 -4.011302
0.444974 0.446056 -3.961780
0.443903 0.451632 -4.011302
0.636029 0.656920 -5.834622
0.632128 0.662946 -5.888151
0.616733 0.656920 -5.834622
0.607085 0.656920 -5.834622
0.592054 0.651001 -5.782058
0.587788 0.656920 -5.834622
0.578140 0.656920 -5.834622
0.558340 0.645189 -5.730433
0.544007 0.639479 -5.679720
0.511962 0.612383 -5.439054
0.482522 0.587489 -5.217955
0.455382 0.564540 -5.014128
0.443624 0.560164 -4.975259
0.416046 0.535268 -4.754137
0.382673 0.501814 -4.457003
0.365160 0.488251 -4.336544
0.335331 0.457349 -4.062078
0.310904 0.432701 -3.843164
0.194227 0.301088 -2.674202
0.189805 0.301088 -2.674202
0.028438 0.326974 -2.904110
0.022910 0.316935 -2.814949
0.018336 0.318331 -2.827350
0.013721 0.319740 -2.839860
0.010301 0.364955 -3.241457
0.004749 0.350782 -3.115575
-0.000403 0.350782 -3.115575
-0.005475 0.345747 -3.070854
-0.048989 0.301088 -2.674202
-0.053412 0.301088 -2.674202
-0.057834 0.301088 -2.674202
-0.062256 0.301088 -2.674202
-0.066678 0.301088 -2.674202
-0.071100 0.301088 -2.674202
-0.075522 0.301088 -2.674202
-0.088012 0.331473 -2.944075
-0.092880 0.331473 -2.944075
-0.097749 0.331473 -2.944075
-0.101684 0.328460 -2.917311
-0.107981 0.333001 -2.957643
-0.114991 0.339254 -3.013185
-0.122270 0.345747 -3.070854
-0.127348 0.345747 -3.070854
-0.132426 0.345747 -3.070854
-0.138165 0.347409 -3.085617
-0.141903 0.344101 -3.056231
-0.146957 0.344101 -3.056231
-0.152738 0.345747 -3.070854
-0.160115 0.350782 -3.115575
-0.165267 0.350782 -3.115575
-0.171250 0.352493 -3.130773
-0.176427 0.352493 -3.130773
-0.181604 0.352493 -3.130773
-0.189555 0.357728 -3.177269
-0.199754 0.366808 -3.257911
-0.206188 0.368679 -3.274533
-0.254442 0.443320 -3.937475
-0.260953 0.443320 -3.937475
-0.261058 0.432701 -3.843164
-0.267413 0.432701 -3.843164
-0.272139 0.430126 -3.820288
-0.212608 0.301088 -2.674202
-0.217030 0.301088 -2.674202
-0.221452 0.301088 -2.674202
-0.225874 0.301088 -2.674202
-0.230296 0.301088 -2.674202
-0.234718 0.301088 -2.674202
-0.239140 0.301088 -2.674202
-0.321853 0.347409 -3.085617
-0.323842 0.344101 -3.056231
-0.328896 0.344101 -3.056231
-0.314316 0.301088 -2.674202
-0.318738 0.301088 -2.674202
-0.323161 0.301088 -2.674202
-0.347875 0.319740 -2.839860
-0.352571 0.319740 -2.839860
-0.336427 0.301088 -2.674202
-0.340849 0.301088 -2.674202
-0.345271 0.301088 -2.674202
-0.349693 0.301088 -2.674202
-0.354115 0.301088 -2.674202
-0.358537 0.301088 -2.674202
-0.405164 0.336098 -2.985155
-0.416976 0.337669 -2.999105
-0.430922 0.340854 -3.027398
-0.410742 0.321161 -2.852482
-0.421073 0.325501 -2.891029
-0.393914 0.301088 -2.674202
-0.398337 0.301088 -2.674202
-0.402759 0.301088 -2.674202
-0.407181 0.301088 -2.674202
-0.411603 0.301088 -2.674202
-0.487054 0.352493 -3.130773
-0.485131 0.347409 -3.085617
-0.490234 0.347409 -3.085617
-0.492966 0.345747 -3.070854
-0.451402 0.301088 -2.674202
-0.455824 0.301088 -2.674202
-0.460246 0.301088 -2.674202
-0.464668 0.301088 -2.674202
-0.469090 0.301088 -2.674202
-0.473513 0.301088 -2.674202
-0.477935 0.301088 -2.674202
-0.482357 0.301088 -2.674202
-0.486779 0.301088 -2.674202
-0.491201 0.301088 -2.674202
-0.495623 0.301088 -2.674202
-0.500045 0.301088 -2.674202
-0.504467 0.301088 -2.674202
-0.508889 0.301088 -2.674202
-0.513312 0.301088 -2.674202
-0.517734 0.301088 -2.674202
-0.522156 0.301088 -2.674202
-0.526578 0.301088 -2.674202
-15.078876 7.226115 -64.180840
-15.185008 7.226115 -64.180840
-12.333887 5.558550 -49.369877
-14.672895 6.569195 -58.346222
-18.051462 8.029016 -71.312050
-0.818438 0.301088 -2.674202
-0.822860 0.301088 -2.674202
-0.827282 0.301088 -2.674202
-0.831704 0.301088 -2.674202
-0.836126 0.301088 -2.674202
-0.840548 0.301088 -2.674202
-0.844970 0.301088 -2.674202
-1.266175 0.448827 -3.986388
-1.272767 0.448827 -3.986388
-1.170323 0.410575 -3.646639
-1.176353 0.410575 -3.646639
-0.918000 0.315551 -2.802657
-0.880347 0.301088 -2.674202
-0.919241 0.312819 -2.778391
-13.669529 4.516322 -40.113026
-4.578620 1.505441 -13.371009
-3.450548 1.129080 -10.028256
-2.881771 0.938456 -8.335175
-2.895555 0.938456 -8.335175
-23.267250 6.021762 -53.484035
-17.516769 4.516322 -40.113026
-17.583101 4.516322 -40.113026
-16.611231 4.250656 -37.753437
-16.673660 4.250656 -37.753437
-16.736092 4.250656 -37.753437
-16.798521 4.250656 -37.753437
-17.914761 4.516322 -40.113026
-23.974789 6.021762 -53.484035
-24.063231 6.021762 -53.484035
-24.151674 6.021762 -53.484035
-24.240116 6.021762 -53.484035
-19.462847 4.817410 -42.787228
-17.235529 4.250656 -37.753437
-9.189541 2.258161 -20.056513
-9.222707 2.258161 -20.056513
-14.104187 3.441007 -30.562305
-18.578077 4.516322 -40.113026
-18.644409 4.516322 -40.113026
-18.710741 4.516322 -40.113026
-18.777073 4.516322 -40.113026
-14.356879 3.441007 -30.562305
-18.909737 4.516322 -40.113026
-1.437534 0.301088 -2.674202
-1.441956 0.301088 -2.674202
-1.446378 0.301088 -2.674202
-1.450800 0.301088 -2.674202
-1.455222 0.301088 -2.674202
-1.459644 0.301088 -2.674202
-1.555408 0.314179 -2.790471
-1.495021 0.301088 -2.674202
-1.499443 0.301088 -2.674202
-1.503865 0.301088 -2.674202
-1.508288 0.301088 -2.674202
-1.512710 0.301088 -2.674202
-1.517132 0.301088 -2.674202
-1.534820 0.301088 -2.674202
-1.539242 0.301088 -2.674202
-1.543664 0.301088 -2.674202
-1.548087 0.301088 -2.674202
-1.552509 0.301088 -2.674202
-1.561353 0.301088 -2.674202
1.178846 0.329629 -2.971335
1.092972 0.306896 -2.766416
1.088397 0.306896 -2.766416
1.571543 0.444999 -4.011302
1.564910 0.444999 -4.011302
1.558277 0.444999 -4.011302
11.951862 4.746656 -42.787228
11.138539 4.449990 -40.113026
11.072207 4.449990 -40.113026
0.707192 0.296666 -2.674202
0.702770 0.296666 -2.674202
0.698348 0.296666 -2.674202
0.693926 0.296666 -2.674202
0.689504 0.296666 -2.674202
0.654127 0.296666 -2.674202
0.649705 0.296666 -2.674202
0.645283 0.296666 -2.674202
0.640861 0.296666 -2.674202
0.636439 0.296666 -2.674202
0.632016 0.296666 -2.674202
0.627594 0.296666 -2.674202
0.623172 0.296666 -2.674202
1.016196 0.497901 -4.488171
1.008775 0.497901 -4.488171
0.490509 0.296666 -2.674202
0.486087 0.296666 -2.674202
0.481664 0.296666 -2.674202
0.477242 0.296666 -2.674202
0.472820 0.296666 -2.674202
0.468398 0.296666 -2.674202
0.463976 0.296666 -2.674202
0.459554 0.296666 -2.674202
0.455132 0.296666 -2.674202
0.450710 0.296666 -2.674202
0.446288 0.296666 -2.674202
0.441865 0.296666 -2.674202
0.437443 0.296666 -2.674202
0.433021 0.296666 -2.674202
0.428599 0.296666 -2.674202
0.424177 0.296666 -2.674202
0.419755 0.296666 -2.674202
0.415333 0.296666 -2.674202
0.410911 0.296666 -2.674202
0.406489 0.296666 -2.674202
0.402066 0.296666 -2.674202
0.397644 0.296666 -2.674202
0.962993 0.726529 -6.549066
0.952163 0.726529 -6.549066
0.913373 0.704949 -6.354539
0.902865 0.704949 -6.354539
4.771270 3.955547 -35.656025
2.736179 2.296769 -20.703497
1.994292 1.695234 -15.281153
1.969022 1.695234 -15.281153
0.960443 0.837645 -7.550687
0.885454 0.782416 -7.052840
0.828281 0.741665 -6.685504
0.800548 0.726529 -6.549066
0.773924 0.711998 -6.418084
0.749581 0.719190 -6.482913
0.460045 0.447798 -4.036531
0.450537 0.444999 -4.011302
0.443903 0.444999 -4.011302
0.647808 0.659258 -5.942670
0.643943 0.665419 -5.998209
0.628154 0.659258 -5.942670
0.612654 0.653210 -5.888151
0.597436 0.647271 -5.834622
0.587788 0.647271 -5.834622
0.578140 0.647271 -5.834622
0.558340 0.635713 -5.730433
0.544007 0.630087 -5.679720
0.516337 0.608546 -5.485542
0.486477 0.583605 -5.260725
0.458967 0.560629 -5.053610
0.447090 0.556249 -5.014128
0.435397 0.551937 -4.975259
0.408185 0.527406 -4.754137
0.372715 0.491033 -4.426265
0.329083 0.442235 -3.986388
0.296691 0.406856 -3.667477
0.269099 0.376719 -3.395812
0.247753 0.354228 -3.193077
0.234810 0.367009 -3.308291
0.023636 0.322171 -2.904110
0.020010 0.342307 -3.085617
0.014908 0.342307 -3.085617
-0.053412 0.296666 -2.674202
-0.057834 0.296666 -2.674202
-0.062256 0.296666 -2.674202
-0.066678 0.296666 -2.674202
-0.071100 0.296666 -2.674202
-0.080200 0.315044 -2.839860
-0.090078 0.334272 -3.013185
-0.092880 0.326605 -2.944075
-0.097749 0.326605 -2.944075
-0.101684 0.323636 -2.917311
-0.106508 0.323636 -2.917311
-0.102055 0.296666 -2.674202
-0.106477 0.296666 -2.674202
-0.120981 0.323636 -2.917311
-0.128731 0.331162 -2.985155
-0.134291 0.332710 -2.999105
-0.139251 0.332710 -2.999105
-0.146261 0.337440 -3.041746
-0.152011 0.339047 -3.056231
-0.158575 0.342307 -3.085617
-0.165267 0.345630 -3.115575
-0.171250 0.347316 -3.130773
-0.228398 0.436809 -3.937475
-0.234909 0.436809 -3.937475
-0.241420 0.436809 -3.937475
-0.249462 0.439505 -3.961780
-0.256013 0.439505 -3.961780
-0.212608 0.296666 -2.674202
-0.217030 0.296666 -2.674202
-0.221452 0.296666 -2.674202
-0.225874 0.296666 -2.674202
-0.230296 0.296666 -2.674202
-0.234718 0.296666 -2.674202
-0.239140 0.296666 -2.674202
-0.344456 0.325113 -2.930632
-0.318738 0.296666 -2.674202
-0.323161 0.296666 -2.674202
-0.346343 0.313656 -2.827350
-0.351018 0.313656 -2.827350
-0.336427 0.296666 -2.674202
-0.340849 0.296666 -2.674202
-0.357177 0.306896 -2.766416
-0.349693 0.296666 -2.674202
-0.354115 0.296666 -2.674202
-0.358537 0.296666 -2.674202
-0.405164 0.331162 -2.985155
-0.412017 0.332710 -2.999105
-0.415037 0.331162 -2.985155
-0.390884 0.308224 -2.778391
-0.380648 0.296666 -2.674202
-0.385070 0.296666 -2.674202
-0.389492 0.296666 -2.674202
-0.393914 0.296666 -2.674202
-0.398337 0.296666 -2.674202
-0.402759 0.296666 -2.674202
-0.407181 0.296666 -2.674202
-0.411603 0.296666 -2.674202
-0.416025 0.296666 -2.674202
-0.440643 0.310916 -2.802657
-0.445278 0.310916 -2.802657
-0.429291 0.296666 -2.674202
-0.433713 0.296666 -2.674202
-0.451402 0.296666 -2.674202
-0.455824 0.296666 -2.674202
-0.460246 0.296666 -2.674202
-0.464668 0.296666 -2.674202
-0.469090 0.296666 -2.674202
-0.473513 0.296666 -2.674202
-0.477935 0.296666 -2.674202
-0.482357 0.296666 -2.674202
-0.486779 0.296666 -2.674202
-0.491201 0.296666 -2.674202
-0.495623 0.296666 -2.674202
-0.500045 0.296666 -2.674202
-0.504467 0.296666 -2.674202
-0.508889 0.296666 -2.674202
-0.513312 0.296666 -2.674202
-0.517734 0.296666 -2.674202
-0.522156 0.296666 -2.674202
-0.526578 0.296666 -2.674202
-0.531000 0.296666 -2.674202
-15.078876 7.119984 -64.180840
-15.185008 7.119984 -64.180840
-17.815615 7.911093 -71.312050
-17.933538 7.911093 -71.312050
-0.822860 0.296666 -2.674202
-0.827282 0.296666 -2.674202
-0.831704 0.296666 -2.674202
-0.836126 0.296666 -2.674202
-0.840548 0.296666 -2.674202
-0.844970 0.296666 -2.674202
-0.849392 0.296666 -2.674202
-0.853814 0.296666 -2.674202
-1.067237 0.368911 -3.325432
-0.996003 0.339047 -3.056231
-0.918000 0.310916 -2.802657
-0.880347 0.296666 -2.674202
-0.919241 0.308224 -2.778391
-13.669529 4.449990 -40.113026
-7.089477 2.296769 -20.703497
-3.505319 1.130156 -10.187435
-2.808815 0.901264 -8.124157
-2.822249 0.901264 -8.124157
-2.434989 0.773911 -6.976179
-23.355692 5.933320 -53.484035
-20.094973 5.085703 -45.843460
-18.826061 4.746656 -42.787228
-18.896816 4.746656 -42.787228
-23.709461 5.933320 -53.484035
-18.379082 4.449990 -40.113026
-27.215624 6.472713 -58.346222
-23.110243 5.476911 -49.369877
-23.191883 5.476911 -49.369877
-23.273521 5.476911 -49.369877
-1.500035 0.309565 -2.790471
-1.441956 0.296666 -2.674202
-1.446378 0.296666 -2.674202
-1.450800 0.296666 -2.674202
-1.455222 0.296666 -2.674202
-1.459644 0.296666 -2.674202
-1.555408 0.309565 -2.790471
-1.495021 0.296666 -2.674202
-1.499443 0.296666 -2.674202
-1.503865 0.296666 -2.674202
-1.508288 0.296666 -2.674202
-1.512710 0.296666 -2.674202
-1.530398 0.296666 -2.674202
-1.534820 0.296666 -2.674202
-1.539242 0.296666 -2.674202
-1.543664 0.296666 -2.674202
-1.548087 0.296666 -2.674202
-1.552509 0.296666 -2.674202
-1.556931 0.296666 -2.674202
-1.561353 0.296666 -2.674202
-1.565775 0.296666 -2.674202
1.278461 0.350693 -3.209042
1.178846 0.324715 -2.971335
1.092972 0.302321 -2.766416
1.088397 0.302321 -2.766416
1.571543 0.438366 -4.011302
1.564910 0.438366 -4.011302
1.558277 0.438366 -4.011302
13.790611 5.395272 -49.369877
11.138539 4.383658 -40.113026
11.072207 4.383658 -40.113026
0.707192 0.292244 -2.674202
0.702770 0.292244 -2.674202
0.698348 0.292244 -2.674202
0.693926 0.292244 -2.674202
0.689504 0.292244 -2.674202
0.685082 0.292244 -2.674202
0.649705 0.292244 -2.674202
0.645283 0.292244 -2.674202
0.640861 0.292244 -2.674202
0.636439 0.292244 -2.674202
0.632016 0.292244 -2.674202
0.627594 0.292244 -2.674202
0.623172 0.292244 -2.674202
1.171019 0.561108 -5.134468
1.117816 0.539527 -4.936988
0.486087 0.292244 -2.674202
0.481664 0.292244 -2.674202
0.477242 0.292244 -2.674202
0.472820 0.292244 -2.674202
0.468398 0.292244 -2.674202
0.463976 0.292244 -2.674202
0.459554 0.292244 -2.674202
0.455132 0.292244 -2.674202
0.450710 0.292244 -2.674202
0.446288 0.292244 -2.674202
0.441865 0.292244 -2.674202
0.437443 0.292244 -2.674202
0.433021 0.292244 -2.674202
0.428599 0.292244 -2.674202
0.424177 0.292244 -2.674202
0.419755 0.292244 -2.674202
0.415333 0.292244 -2.674202
0.410911 0.292244 -2.674202
0.406489 0.292244 -2.674202
0.402066 0.292244 -2.674202
0.397644 0.292244 -2.674202
0.962993 0.715699 -6.549066
0.952163 0.715699 -6.549066
0.922507 0.701385 -6.418084
0.911894 0.701385 -6.418084
6.688013 5.395272 -49.369877
4.771270 3.896585 -35.656025
2.736179 2.262533 -20.703497
1.600738 1.375265 -12.584478
0.905352 0.788073 -7.211330
0.837000 0.738300 -6.755878
0.800548 0.715699 -6.549066
0.773924 0.701385 -6.418084
0.763311 0.701385 -6.418084
0.746400 0.715699 -6.549066
0.720859 0.701385 -6.418084
0.703213 0.694441 -6.354539
0.679255 0.680957 -6.231150
0.662519 0.674409 -6.171235
0.640006 0.661684 -6.054796
0.624106 0.655500 -5.998209
0.614187 0.655500 -5.998209
0.604268 0.655500 -5.998209
0.588846 0.649431 -5.942670
0.568492 0.637623 -5.834622
0.548864 0.626237 -5.730433
0.525317 0.609900 -5.580943
0.486477 0.574906 -5.260725
0.458967 0.552272 -5.053610
0.450611 0.552272 -5.053610
0.438799 0.547957 -5.014128
0.411231 0.523422 -4.789615
0.335675 0.435643 -3.986388
0.309838 0.410167 -3.753266
0.274714 0.371103 -3.395812
0.253033 0.348948 -3.193077
0.239415 0.337204 -3.085617
0.229892 0.330842 -3.027398
0.213793 0.314523 -2.878065
0.236027 0.363412 -3.325432
0.230528 0.363412 -3.325432
0.025113 0.337204 -3.085617
0.020303 0.342139 -3.130773
0.015126 0.342139 -3.130773
-0.000381 0.321736 -2.944075
-0.005249 0.321736 -2.944075
-0.147660 0.746155 -6.827749
-0.158951 0.746155 -6.827749
-0.077683 0.340478 -3.115575
-0.082835 0.340478 -3.115575
-0.087987 0.340478 -3.115575
-0.091802 0.335591 -3.070854
-0.095509 0.330842 -3.027398
-0.099576 0.327750 -2.999105
-0.104049 0.326226 -2.985155
-0.108481 0.324715 -2.971335
-0.108377 0.310347 -2.839860
-0.106477 0.292244 -2.674202
-0.120981 0.318812 -2.917311
-0.125805 0.318812 -2.917311
-0.133667 0.326226 -2.985155
-0.138603 0.326226 -2.985155
-0.144210 0.327750 -2.999105
-0.149870 0.329289 -3.013185
-0.157065 0.333993 -3.056231
-0.163677 0.337204 -3.085617
-0.170419 0.340478 -3.115575
-0.242910 0.432954 -3.961780
-0.249462 0.432954 -3.961780
-0.256013 0.432954 -3.961780
-0.262564 0.432954 -3.961780
-0.219143 0.307625 -2.814949
-0.223798 0.307625 -2.814949
-0.228452 0.307625 -2.814949
-0.229088 0.302321 -2.766416
-0.225874 0.292244 -2.674202
-0.230296 0.292244 -2.674202
-0.234718 0.292244 -2.674202
-0.249538 0.304950 -2.790471
-0.344456 0.320267 -2.930632
-0.334049 0.306282 -2.802657
-0.338684 0.306282 -2.802657
-0.346343 0.308980 -2.827350
-0.351018 0.308980 -2.827350
-0.355694 0.308980 -2.827350
-0.360369 0.308980 -2.827350
-0.365044 0.308980 -2.827350
-0.349693 0.292244 -2.674202
-0.354115 0.292244 -2.674202
-0.358537 0.292244 -2.674202
-0.395956 0.318812 -2.917311
-0.404457 0.321736 -2.944075
-0.394836 0.310347 -2.839860
-0.376226 0.292244 -2.674202
-0.380648 0.292244 -2.674202
-0.385070 0.292244 -2.674202
-0.389492 0.292244 -2.674202
-0.393914 0.292244 -2.674202
-0.398337 0.292244 -2.674202
-0.402759 0.292244 -2.674202
-0.407181 0.292244 -2.674202
-0.411603 0.292244 -2.674202
-0.416025 0.292244 -2.674202
-0.420447 0.292244 -2.674202
-0.424869 0.292244 -2.674202
-0.429291 0.292244 -2.674202
-0.433713 0.292244 -2.674202
-0.438136 0.292244 -2.674202
-0.481495 0.311727 -2.852482
-0.455824 0.292244 -2.674202
-0.460246 0.292244 -2.674202
-0.464668 0.292244 -2.674202
-0.469090 0.292244 -2.674202
-0.473513 0.292244 -2.674202
-0.477935 0.292244 -2.674202
-0.482357 0.292244 -2.674202
-0.486779 0.292244 -2.674202
-0.491201 0.292244 -2.674202
-0.495623 0.292244 -2.674202
-0.500045 0.292244 -2.674202
-0.504467 0.292244 -2.674202
-0.508889 0.292244 -2.674202
-0.513312 0.292244 -2.674202
-0.517734 0.292244 -2.674202
-0.522156 0.292244 -2.674202
-0.526578 0.292244 -2.674202
-0.531000 0.292244 -2.674202
-0.535422 0.292244 -2.674202
-14.654354 7.013854 -64.180840
-14.760485 7.013854 -64.180840
-15.503400 7.013854 -64.180840
-14.190482 6.376230 -58.346222
-12.088970 5.395272 -49.369877
-0.827282 0.292244 -2.674202
-0.831704 0.292244 -2.674202
-0.836126 0.292244 -2.674202
-0.840548 0.292244 -2.674202
-0.844970 0.292244 -2.674202
-0.849392 0.292244 -2.674202
-0.853814 0.292244 -2.674202
-0.858237 0.292244 -2.674202
-0.955555 0.318812 -2.917311
-0.922635 0.306282 -2.802657
-0.927269 0.306282 -2.802657
-13.669529 4.383658 -40.113026
-3.522165 1.113310 -10.187435
-2.822249 0.887830 -8.124157
-24.240116 5.844878 -53.484035
-29.300400 7.013854 -64.180840
-29.406532 7.013854 -64.180840
-27.312105 6.376230 -58.346222
-25.124538 5.844878 -53.484035
-25.212982 5.844878 -53.484035
-1.441956 0.292244 -2.674202
-1.446378 0.292244 -2.674202
-1.450800 0.292244 -2.674202
-1.455222 0.292244 -2.674202
-1.592332 0.313118 -2.865216
-1.490599 0.292244 -2.674202
-1.495021 0.292244 -2.674202
-1.499443 0.292244 -2.674202
-1.503865 0.292244 -2.674202
-1.508288 0.292244 -2.674202
-1.525976 0.292244 -2.674202
-1.530398 0.292244 -2.674202
-1.534820 0.292244 -2.674202
-1.539242 0.292244 -2.674202
-1.543664 0.292244 -2.674202
-1.556931 0.292244 -2.674202
-1.561353 0.292244 -2.674202
-1.565775 0.292244 -2.674202
1.395399 0.375420 -3.488089
1.278461 0.345386 -3.209042
1.178846 0.319802 -2.971335
1.092972 0.297747 -2.766416
1.088397 0.297747 -2.766416
1.571543 0.431733 -4.011302
1.564910 0.431733 -4.011302
1.558277 0.431733 -4.011302
17.927794 6.907722 -64.180840
11.138539 4.317327 -40.113026
11.072207 4.317327 -40.113026
0.707192 0.287822 -2.674202
0.702770 0.287822 -2.674202
0.698348 0.287822 -2.674202
0.693926 0.287822 -2.674202
0.689504 0.287822 -2.674202
0.685082 0.287822 -2.674202
0.722824 0.305651 -2.839860
0.718128 0.305651 -2.839860
0.713432 0.305651 -2.839860
0.667393 0.287822 -2.674202
0.649705 0.287822 -2.674202
0.645283 0.287822 -2.674202
0.640861 0.287822 -2.674202
0.636439 0.287822 -2.674202
0.632016 0.287822 -2.674202
0.627594 0.287822 -2.674202
0.623172 0.287822 -2.674202
1.325893 0.616761 -5.730433
1.316417 0.616761 -5.730433
1.171019 0.552618 -5.134468
1.162529 0.552618 -5.134468
0.486087 0.287822 -2.674202
0.481664 0.287822 -2.674202
0.477242 0.287822 -2.674202
0.472820 0.287822 -2.674202
0.468398 0.287822 -2.674202
0.463976 0.287822 -2.674202
0.459554 0.287822 -2.674202
0.455132 0.287822 -2.674202
0.450710 0.287822 -2.674202
0.446288 0.287822 -2.674202
0.441865 0.287822 -2.674202
0.437443 0.287822 -2.674202
0.433021 0.287822 -2.674202
0.428599 0.287822 -2.674202
0.424177 0.287822 -2.674202
0.419755 0.287822 -2.674202
0.415333 0.287822 -2.674202
0.410911 0.287822 -2.674202
0.406489 0.287822 -2.674202
0.402066 0.287822 -2.674202
0.397644 0.287822 -2.674202
0.393222 0.287822 -2.674202
0.952163 0.704870 -6.549066
0.941334 0.704870 -6.549066
6.606374 5.313633 -49.369877
4.712308 3.837624 -35.656025
4.653347 3.837624 -35.656025
0.837000 0.727129 -6.755878
0.808801 0.712136 -6.616581
0.773924 0.690772 -6.418084
0.763311 0.690772 -6.418084
1.710677 1.569937 -14.586555
0.735570 0.704870 -6.549066
0.710245 0.690772 -6.418084
0.685914 0.677228 -6.292239
0.668951 0.670653 -6.231150
0.652314 0.664204 -6.171235
0.661181 0.683933 -6.354539
0.619981 0.651672 -6.054796
0.627735 0.670653 -6.231150
0.594350 0.645582 -5.998209
0.579019 0.639604 -5.942670
0.558843 0.627975 -5.834622
0.525317 0.600672 -5.580943
0.471033 0.548232 -5.093718
0.458967 0.543915 -5.053610
0.447090 0.539666 -5.014128
0.438799 0.539666 -5.014128
0.331957 0.416128 -3.866316
0.316045 0.403960 -3.753266
0.302756 0.394727 -3.667477
0.274714 0.365488 -3.395812
0.246892 0.335326 -3.115575
0.234898 0.325836 -3.027398
0.219536 0.311159 -2.891029
0.198649 0.287822 -2.674202
0.237256 0.359777 -3.342752
0.231728 0.359777 -3.342752
0.226201 0.359777 -3.342752
0.030509 0.335326 -3.115575
0.025234 0.333706 -3.100524
0.020205 0.335326 -3.115575
0.014908 0.332102 -3.085617
0.009806 0.332102 -3.085617
0.004550 0.321289 -2.985155
-0.000383 0.318328 -2.957643
-0.005323 0.321289 -2.985155
-0.010307 0.322791 -2.999105
-0.114672 1.469728 -13.655499
-0.134394 1.439109 -13.371009
-0.156505 1.439109 -13.371009
-0.087987 0.335326 -3.115575
-0.090932 0.327380 -3.041746
-0.095509 0.325836 -3.027398
-0.100043 0.324306 -3.013185
-0.104535 0.322791 -2.999105
-0.108985 0.321289 -2.985155
-0.111841 0.315421 -2.930632
-0.114082 0.308380 -2.865216
-0.124957 0.324306 -3.013185
-0.128135 0.319802 -2.971335
-0.133667 0.321289 -2.985155
-0.137962 0.319802 -2.971335
-0.143540 0.321289 -2.985155
-0.148476 0.321289 -2.985155
-0.157065 0.328939 -3.056231
-0.163677 0.332102 -3.085617
-0.182845 0.359777 -3.342752
-0.242910 0.426403 -3.961780
-0.256013 0.426403 -3.961780
-0.262564 0.426403 -3.961780
-0.194919 0.287822 -2.674202
-0.199341 0.287822 -2.674202
-0.213551 0.301647 -2.802657
-0.231498 0.307010 -2.852482
-0.233107 0.302970 -2.814949
-0.235695 0.300336 -2.790471
-0.240309 0.300336 -2.790471
-0.244923 0.300336 -2.790471
-0.249538 0.300336 -2.790471
-0.344456 0.315421 -2.930632
-0.339988 0.307010 -2.852482
-0.344705 0.307010 -2.852482
-0.350981 0.308380 -2.865216
-0.355719 0.308380 -2.865216
-0.355694 0.304305 -2.827350
-0.358788 0.302970 -2.814949
-0.363443 0.302970 -2.814949
-0.368098 0.302970 -2.814949
-0.354115 0.287822 -2.674202
-0.372506 0.299036 -2.778391
-0.392389 0.311159 -2.891029
-0.397169 0.311159 -2.891029
-0.391372 0.302970 -2.814949
-0.376226 0.287822 -2.674202
-0.380648 0.287822 -2.674202
-0.385070 0.287822 -2.674202
-0.389492 0.287822 -2.674202
-0.393914 0.287822 -2.674202
-0.398337 0.287822 -2.674202
-0.402759 0.287822 -2.674202
-0.407181 0.287822 -2.674202
-0.411603 0.287822 -2.674202
-0.416025 0.287822 -2.674202
-0.420447 0.287822 -2.674202
-0.424869 0.287822 -2.674202
-0.429291 0.287822 -2.674202
-0.433713 0.287822 -2.674202
-0.438136 0.287822 -2.674202
-0.482790 0.313987 -2.917311
-0.481495 0.307010 -2.852482
-0.473583 0.299036 -2.778391
-0.478178 0.299036 -2.778391
-0.464668 0.287822 -2.674202
-0.469090 0.287822 -2.674202
-0.473513 0.287822 -2.674202
-0.477935 0.287822 -2.674202
-0.482357 0.287822 -2.674202
-0.486779 0.287822 -2.674202
-0.491201 0.287822 -2.674202
-0.495623 0.287822 -2.674202
-0.531021 0.305651 -2.839860
-0.535717 0.305651 -2.839860
-0.538033 0.304305 -2.827350
-0.513312 0.287822 -2.674202
-0.517734 0.287822 -2.674202
-0.522156 0.287822 -2.674202
-0.526578 0.287822 -2.674202
-0.531000 0.287822 -2.674202
-0.535422 0.287822 -2.674202
-0.539844 0.287822 -2.674202
-14.654354 6.907722 -64.180840
-14.760485 6.907722 -64.180840
-15.503400 6.907722 -64.180840
-12.007331 5.313633 -49.369877
-10.477108 4.605148 -42.787228
-18.405231 7.675247 -71.312050
-16.670839 6.907722 -64.180840
-0.831704 0.287822 -2.674202
-0.836126 0.287822 -2.674202
-0.840548 0.287822 -2.674202
-0.844970 0.287822 -2.674202
-0.849392 0.287822 -2.674202
-0.853814 0.287822 -2.674202
-1.271462 0.426403 -3.961780
-0.982346 0.322791 -2.999105
-0.960379 0.313987 -2.917311
-14.510077 4.605148 -42.787228
-13.669529 4.317327 -40.113026
-18.180086 4.317327 -40.113026
-29.194269 6.907722 -64.180840
-29.300400 6.907722 -64.180840
-29.406532 6.907722 -64.180840
-1.524535 0.304305 -2.827350
-1.446378 0.287822 -2.674202
-1.450800 0.287822 -2.674202
-1.578241 0.305651 -2.839860
-1.490599 0.287822 -2.674202
-1.495021 0.287822 -2.674202
-1.499443 0.287822 -2.674202
-1.521554 0.287822 -2.674202
-1.525976 0.287822 -2.674202
-1.530398 0.287822 -2.674202
-1.556931 0.287822 -2.674202
-1.561353 0.287822 -2.674202
-1.565775 0.287822 -2.674202
1.534611 0.404857 -3.820288
1.395399 0.369652 -3.488089
1.278461 0.340080 -3.209042
1.178846 0.314889 -2.971335
1.092972 0.293172 -2.766416
1.088397 0.293172 -2.766416
1.571543 0.425099 -4.011302
1.564910 0.425099 -4.011302
1.558277 0.425099 -4.011302
11.138539 4.250995 -40.113026
10.420901 4.000937 -37.753437
13.545693 5.231994 -49.369877
0.702770 0.283400 -2.674202
0.698348 0.283400 -2.674202
0.693926 0.283400 -2.674202
0.689504 0.283400 -2.674202
0.724316 0.299630 -2.827350
0.722824 0.300955 -2.839860
0.718128 0.300955 -2.839860
0.713432 0.300955 -2.839860
0.667393 0.283400 -2.674202
0.675018 0.294441 -2.778391
0.645283 0.283400 -2.674202
0.640861 0.283400 -2.674202
0.636439 0.283400 -2.674202
0.632016 0.283400 -2.674202
0.627594 0.283400 -2.674202
0.623172 0.283400 -2.674202
1.325893 0.607285 -5.730433
1.304767 0.601911 -5.679720
1.180463 0.548515 -5.175874
1.171904 0.548515 -5.175874
0.486087 0.283400 -2.674202
0.481664 0.283400 -2.674202
0.477242 0.283400 -2.674202
0.472820 0.283400 -2.674202
0.468398 0.283400 -2.674202
0.463976 0.283400 -2.674202
0.459554 0.283400 -2.674202
0.455132 0.283400 -2.674202
0.450710 0.283400 -2.674202
0.446288 0.283400 -2.674202
0.441865 0.283400 -2.674202
0.437443 0.283400 -2.674202
0.433021 0.283400 -2.674202
0.428599 0.283400 -2.674202
0.424177 0.283400 -2.674202
0.419755 0.283400 -2.674202
0.415333 0.283400 -2.674202
0.410911 0.283400 -2.674202
0.406489 0.283400 -2.674202
0.402066 0.283400 -2.674202
0.397644 0.283400 -2.674202
0.393222 0.283400 -2.674202
0.388800 0.283400 -2.674202
0.941334 0.694040 -6.549066
1.529135 1.307998 -12.342469
0.825828 0.715957 -6.755878
0.806171 0.708499 -6.685504
1.624066 1.447147 -13.655499
1.710677 1.545816 -14.586555
0.685914 0.666823 -6.292239
0.668951 0.660349 -6.231150
0.640006 0.641660 -6.054796
0.635954 0.680159 -6.418084
0.589944 0.641660 -6.054796
0.558843 0.618327 -5.834622
0.525317 0.591443 -5.580943
0.474801 0.544127 -5.134468
0.462610 0.539809 -5.093718
0.355483 0.430480 -4.062078
0.324147 0.400094 -3.775344
0.310596 0.390896 -3.688554
0.301036 0.386454 -3.646639
0.283721 0.371672 -3.507150
0.246892 0.330174 -3.115575
0.227390 0.310575 -2.930632
0.203071 0.283400 -2.674202
0.198649 0.283400 -2.674202
0.194227 0.283400 -2.674202
0.237256 0.354250 -3.342752
0.149920 1.388080 -13.098131
0.030509 0.330174 -3.115575
0.025357 0.330174 -3.115575
0.020205 0.330174 -3.115575
0.014908 0.327000 -3.085617
0.009712 0.323885 -3.056231
0.004550 0.316353 -2.985155
-0.000383 0.313437 -2.957643
-0.005249 0.312000 -2.944075
-0.010118 0.312000 -2.944075
-0.072600 1.511465 -14.262409
-0.098370 1.545816 -14.586555
-0.119769 1.511465 -14.262409
-0.134394 1.416998 -13.371009
-0.156505 1.416998 -13.371009
-0.087987 0.330174 -3.115575
-0.091365 0.323885 -3.056231
-0.095962 0.322350 -3.041746
-0.100992 0.322350 -3.041746
-0.105521 0.320830 -3.027398
-0.109495 0.317831 -2.999105
-0.115534 0.320830 -3.027398
-0.119974 0.319324 -3.013185
-0.125546 0.320830 -3.027398
-0.129939 0.319324 -3.013185
-0.134922 0.319324 -3.013185
-0.137962 0.314889 -2.971335
-0.140918 0.310575 -2.930632
-0.145764 0.310575 -2.930632
-0.157816 0.325435 -3.070854
-0.225629 0.412218 -3.889748
-0.232849 0.402461 -3.797683
-0.195013 0.297013 -2.802657
-0.190497 0.283400 -2.674202
-0.194919 0.283400 -2.674202
-0.199341 0.283400 -2.674202
-0.203763 0.283400 -2.674202
-0.218186 0.297013 -2.802657
-0.226782 0.302293 -2.852482
-0.231498 0.302293 -2.852482
-0.236215 0.302293 -2.852482
-0.238810 0.299630 -2.827350
-0.241358 0.297013 -2.802657
-0.244923 0.295721 -2.790471
-0.249538 0.295721 -2.790471
-0.334029 0.388662 -3.667477
-4.816800 4.534395 -42.787228
-4.887554 4.534395 -42.787228
-4.648413 4.250995 -40.113026
-4.190885 3.778662 -35.656025
-4.249846 3.778662 -35.656025
-0.364125 0.319324 -3.013185
-0.365674 0.316353 -2.985155
-0.355719 0.303642 -2.865216
-0.352587 0.297013 -2.802657
-0.357222 0.297013 -2.802657
-0.363443 0.298315 -2.814949
-0.368098 0.298315 -2.814949
-0.371125 0.297013 -2.802657
-0.375760 0.297013 -2.802657
-0.392389 0.306378 -2.891029
-0.398967 0.307764 -2.904110
-0.394836 0.300955 -2.839860
-0.376226 0.283400 -2.674202
-0.380648 0.283400 -2.674202
-0.385070 0.283400 -2.674202
-0.389492 0.283400 -2.674202
-0.393914 0.283400 -2.674202
-0.398337 0.283400 -2.674202
-0.402759 0.283400 -2.674202
-0.407181 0.283400 -2.674202
-0.411603 0.283400 -2.674202
-0.416025 0.283400 -2.674202
-0.420447 0.283400 -2.674202
-0.424869 0.283400 -2.674202
-0.429291 0.283400 -2.674202
-0.433713 0.283400 -2.674202
-0.438136 0.283400 -2.674202
-0.474169 0.303642 -2.865216
-0.478907 0.303642 -2.865216
-0.468989 0.294441 -2.778391
-0.473583 0.294441 -2.778391
-0.469090 0.283400 -2.674202
-0.473513 0.283400 -2.674202
-0.477935 0.283400 -2.674202
-0.482357 0.283400 -2.674202
-0.486779 0.283400 -2.674202
-0.491201 0.283400 -2.674202
-0.495623 0.283400 -2.674202
-0.524065 0.297013 -2.802657
-0.533358 0.299630 -2.827350
-0.533334 0.297013 -2.802657
-0.513312 0.283400 -2.674202
-0.517734 0.283400 -2.674202
-0.522156 0.283400 -2.674202
-0.526578 0.283400 -2.674202
-0.531000 0.283400 -2.674202
-0.535422 0.283400 -2.674202
-0.539844 0.283400 -2.674202
-0.544266 0.283400 -2.674202
-18.405231 7.557324 -71.312050
-18.523153 7.557324 -71.312050
-19.112770 7.557324 -71.312050
-19.230692 7.557324 -71.312050
-0.840548 0.283400 -2.674202
-0.844970 0.283400 -2.674202
-1.015565 0.328579 -3.100524
-0.987305 0.317831 -2.999105
-1.194404 0.354250 -3.342752
-1.134911 0.335054 -3.161618
-18.113754 4.250995 -40.113026
-13.851495 3.238853 -30.562305
-15.365405 3.579785 -33.779392
-16.278000 3.778662 -35.656025
-24.505444 5.667993 -53.484035
-1.486177 0.283400 -2.674202
-1.490599 0.283400 -2.674202
-1.495021 0.283400 -2.674202
-1.599341 0.299630 -2.827350
-1.583094 0.295721 -2.790471
-1.521554 0.283400 -2.674202
-1.656009 0.302293 -2.852482
-1.556931 0.283400 -2.674202
-1.561353 0.283400 -2.674202
-1.565775 0.283400 -2.674202
1.534611 0.398539 -3.820288
1.395399 0.363884 -3.488089
1.278461 0.334773 -3.209042
1.178846 0.309975 -2.971335
1.092972 0.288597 -2.766416
1.088397 0.288597 -2.766416
1.571543 0.418466 -4.011302
1.564910 0.418466 -4.011302
1.558277 0.418466 -4.011302
10.483332 3.938507 -37.753437
6.561308 2.479800 -23.770681
6.522001 2.479800 -23.770681
17.503271 6.695461 -64.180840
17.291010 6.695461 -64.180840
17.184879 6.695461 -64.180840
0.748230 0.298905 -2.865216
0.733666 0.294954 -2.827350
0.728991 0.294954 -2.827350
0.730754 0.297576 -2.852482
0.726037 0.297576 -2.852482
0.718128 0.296259 -2.839860
0.671815 0.278978 -2.674202
0.667393 0.278978 -2.674202
0.675018 0.289847 -2.778391
0.645283 0.278978 -2.674202
0.640861 0.278978 -2.674202
0.636439 0.278978 -2.674202
0.632016 0.278978 -2.674202
0.627594 0.278978 -2.674202
1.316417 0.597809 -5.730433
1.261874 0.577195 -5.532831
0.481664 0.278978 -2.674202
0.477242 0.278978 -2.674202
0.472820 0.278978 -2.674202
0.468398 0.278978 -2.674202
0.463976 0.278978 -2.674202
0.459554 0.278978 -2.674202
0.455132 0.278978 -2.674202
0.450710 0.278978 -2.674202
0.446288 0.278978 -2.674202
0.441865 0.278978 -2.674202
0.437443 0.278978 -2.674202
0.433021 0.278978 -2.674202
0.428599 0.278978 -2.674202
0.424177 0.278978 -2.674202
0.419755 0.278978 -2.674202
0.415333 0.278978 -2.674202
0.410911 0.278978 -2.674202
0.406489 0.278978 -2.674202
0.402066 0.278978 -2.674202
0.397644 0.278978 -2.674202
0.393222 0.278978 -2.674202
0.388800 0.278978 -2.674202
1.601096 1.366421 -13.098131
1.579437 1.366421 -13.098131
1.624066 1.424566 -13.655499
1.601485 1.424566 -13.655499
1.613228 1.455535 -13.952357
0.685914 0.656418 -6.292239
0.650018 0.631647 -6.054796
0.622391 0.614262 -5.888151
0.629994 0.631647 -6.054796
0.589944 0.631647 -6.054796
0.544007 0.592519 -5.679720
0.525317 0.582214 -5.580943
0.516088 0.582214 -5.580943
0.466311 0.535637 -5.134468
0.403011 0.471511 -4.519778
0.336325 0.400926 -3.843164
0.316695 0.384797 -3.688554
0.307066 0.380424 -3.646639
0.301036 0.380424 -3.646639
0.223311 0.300245 -2.878065
0.203071 0.278978 -2.674202
0.198649 0.278978 -2.674202
0.194227 0.278978 -2.674202
0.237256 0.348722 -3.342752
0.149920 1.366421 -13.098131
0.030361 0.323452 -3.100524
0.025234 0.323452 -3.100524
0.020107 0.323452 -3.100524
0.014908 0.321897 -3.085617
0.009712 0.318831 -3.056231
0.004658 0.318831 -3.056231
-0.000386 0.311417 -2.985155
-0.005274 0.308547 -2.957643
-0.010164 0.308547 -2.957643
-0.072600 1.487880 -14.262409
-0.100658 1.557084 -14.925777
-0.122491 1.521696 -14.586555
-0.143354 1.487880 -14.262409
-0.163309 1.455535 -13.952357
-0.186381 1.455535 -13.952357
-0.096419 0.318831 -3.056231
-0.100992 0.317320 -3.041746
-0.106021 0.317320 -3.041746
-0.111051 0.317320 -3.041746
-0.116081 0.317320 -3.041746
-0.122270 0.320357 -3.070854
-0.127348 0.320357 -3.070854
-0.132426 0.320357 -3.070854
-0.135558 0.315824 -3.027398
-0.139905 0.314341 -3.013185
-0.139643 0.302962 -2.904110
-0.144445 0.302962 -2.904110
-0.220289 0.396181 -3.797683
-0.226569 0.396181 -3.797683
-0.227465 0.387021 -3.709875
-0.232257 0.384797 -3.688554
-0.239735 0.387021 -3.709875
-0.190497 0.278978 -2.674202
-0.194919 0.278978 -2.674202
-0.199341 0.278978 -2.674202
-0.203763 0.278978 -2.674202
-0.208186 0.278978 -2.674202
-0.248160 0.294954 -2.827350
-0.326100 0.380424 -3.646639
-3.635162 3.523927 -33.779392
-3.506469 3.347730 -32.090420
-4.449418 4.184663 -40.113026
-4.816800 4.463641 -42.787228
-4.887554 4.463641 -42.787228
-4.648413 4.184663 -40.113026
-4.714745 4.184663 -40.113026
-0.347953 0.292378 -2.802657
-0.336427 0.278978 -2.674202
-0.340849 0.278978 -2.674202
-0.363443 0.293661 -2.814949
-0.398361 0.298905 -2.865216
-0.376226 0.278978 -2.674202
-0.380648 0.278978 -2.674202
-0.385070 0.278978 -2.674202
-0.389492 0.278978 -2.674202
-0.393914 0.278978 -2.674202
-0.398337 0.278978 -2.674202
-0.402759 0.278978 -2.674202
-0.407181 0.278978 -2.674202
-0.411603 0.278978 -2.674202
-0.416025 0.278978 -2.674202
-0.420447 0.278978 -2.674202
-0.424869 0.278978 -2.674202
-0.429291 0.278978 -2.674202
-0.433713 0.278978 -2.674202
-0.438136 0.278978 -2.674202
-0.442558 0.278978 -2.674202
-0.446980 0.278978 -2.674202
-0.451402 0.278978 -2.674202
-0.473583 0.289847 -2.778391
-0.469090 0.278978 -2.674202
-0.473513 0.278978 -2.674202
-0.477935 0.278978 -2.674202
-0.482357 0.278978 -2.674202
-0.486779 0.278978 -2.674202
-0.491201 0.278978 -2.674202
-0.495623 0.278978 -2.674202
-0.500045 0.278978 -2.674202
-0.524122 0.289847 -2.778391
-0.508889 0.278978 -2.674202
-0.513312 0.278978 -2.674202
-0.517734 0.278978 -2.674202
-0.522156 0.278978 -2.674202
-0.526578 0.278978 -2.674202
-0.531000 0.278978 -2.674202
-0.535422 0.278978 -2.674202
-0.539844 0.278978 -2.674202
-0.544266 0.278978 -2.674202
-0.548688 0.278978 -2.674202
-8.296659 4.184663 -40.113026
-1.015565 0.323452 -3.100524
-0.943229 0.298905 -2.865216
-0.956507 0.301597 -2.891029
-12.803009 3.938507 -37.753437
-7.290415 2.231820 -21.393614
-1.188215 0.346915 -3.325432
-1.134911 0.329826 -3.161618
-1.086611 0.314341 -3.013185
-26.250797 6.086783 -58.346222
-14.491004 3.347730 -32.090420
-11.187746 2.575177 -24.684938
-10.426525 2.391236 -22.921730
-10.464429 2.391236 -22.921730
-15.477121 3.523927 -33.779392
-1.486177 0.278978 -2.674202
-1.490599 0.278978 -2.674202
-1.604016 0.294954 -2.827350
-1.656009 0.297576 -2.852482
-1.556931 0.278978 -2.674202
-1.561353 0.278978 -2.674202
-1.565775 0.278978 -2.674202
1.534611 0.392222 -3.820288
1.395399 0.358116 -3.488089
1.278461 0.329467 -3.209042
1.178846 0.305062 -2.971335
1.092972 0.284023 -2.766416
1.088397 0.284023 -2.766416
1.571543 0.411833 -4.011302
1.564910 0.411833 -4.011302
1.558277 0.411833 -4.011302
9.379823 3.468069 -33.779392
5.714688 2.125590 -20.703497
5.502938 2.059166 -20.056513
6.732027 2.534358 -24.684938
10.873213 4.118331 -40.113026
10.171182 3.876077 -37.753437
9.547154 3.660739 -35.656025
9.488194 3.660739 -35.656025
8.380177 3.294665 -32.090420
0.743492 0.294167 -2.865216
0.738754 0.294167 -2.865216
0.716603 0.292859 -2.852482
0.675018 0.285252 -2.778391
0.645283 0.274555 -2.674202
0.640861 0.274555 -2.674202
0.636439 0.274555 -2.674202
0.632016 0.274555 -2.674202
0.627594 0.274555 -2.674202
1.271023 0.568046 -5.532831
1.190060 0.535718 -5.217955
0.481664 0.274555 -2.674202
0.477242 0.274555 -2.674202
0.472820 0.274555 -2.674202
0.468398 0.274555 -2.674202
0.463976 0.274555 -2.674202
0.459554 0.274555 -2.674202
0.455132 0.274555 -2.674202
0.450710 0.274555 -2.674202
0.446288 0.274555 -2.674202
0.441865 0.274555 -2.674202
0.437443 0.274555 -2.674202
0.433021 0.274555 -2.674202
0.428599 0.274555 -2.674202
0.424177 0.274555 -2.674202
0.419755 0.274555 -2.674202
0.415333 0.274555 -2.674202
0.410911 0.274555 -2.674202
0.406489 0.274555 -2.674202
0.402066 0.274555 -2.674202
0.397644 0.274555 -2.674202
0.393222 0.274555 -2.674202
0.388800 0.274555 -2.674202
1.634452 1.372777 -13.371009
1.579437 1.344761 -13.098131
1.590231 1.372777 -13.371009
1.568120 1.372777 -13.371009
1.578904 1.401985 -13.655499
1.625493 1.464296 -14.262409
0.632128 0.604526 -5.888151
0.611177 0.593633 -5.782058
0.612654 0.604526 -5.888151
0.386013 0.406749 -3.961780
0.377134 0.404253 -3.937475
0.368363 0.401788 -3.913466
0.525223 0.583127 -5.679720
0.330390 0.387608 -3.775344
0.313096 0.374394 -3.646639
