# .PCD v0.7 - Point Cloud Data file format
VERSION 0.7
FIELDS x y z
SIZE 4 4 4
TYPE F F F
COUNT 1 1 1
WIDTH 1456
HEIGHT 1
VIEWPOINT 0 0 0 1 0 0 0
POINTS 1456
DATA ascii
-1.337749 -0.044004001 -3.710546
-1.343418 -0.044004001 -3.710546
-1.349088 -0.044004001 -3.710546
-1.354757 -0.044004001 -3.710546
-1.360427 -0.044004001 -3.710546
-1.366097 -0.044004001 -3.710546
-1.371766 -0.044004001 -3.710546
-1.377436 -0.044004001 -3.710546
-1.383105 -0.044004001 -3.710546
-1.388775 -0.044004001 -3.710546
-1.3944449 -0.044004001 -3.710546
-1.4001141 -0.044004001 -3.710546
-1.405784 -0.044004001 -3.710546
-1.411453 -0.044004001 -3.710546
-1.417123 -0.044004001 -3.710546
-1.422793 -0.044004001 -3.710546
-1.428462 -0.044004001 -3.710546
-1.434132 -0.044004001 -3.710546
-1.4398021 -0.044004001 -3.710546
-1.445471 -0.044004001 -3.710546
-1.451141 -0.044004001 -3.710546
-1.479934 -0.044702001 -3.769444
-1.4856941 -0.044702001 -3.769444
-1.46815 -0.044004001 -3.710546
-1.473819 -0.044004001 -3.710546
-1.502973 -0.044702001 -3.769444
-1.508732 -0.044702001 -3.769444
-1.514492 -0.044702001 -3.769444
-1.520252 -0.044702001 -3.769444
-1.550624 -0.045423001 -3.830241
-1.556477 -0.045423001 -3.830241
-1.5623291 -0.045423001 -3.830241
-1.568182 -0.045423001 -3.830241
-1.599838 -0.046168 -3.8930321
-1.605786 -0.046168 -3.8930321
-1.638597 -0.046937998 -3.957916
-1.701357 -0.048556 -4.0943961
-1.800755 -0.051205002 -4.3177261
-1.963335 -0.055220999 -4.6563711
-1.896094 -0.053137001 -4.480659
-1.939535 -0.054159001 -4.5668259
-1.9465131 -0.054159001 -4.5668259
-2.031631 -0.056325 -4.7494988
-2.038888 -0.056325 -4.7494988
-2.0060239 -0.055220999 -4.6563711
-2.013139 -0.055220999 -4.6563711
-2.0606589 -0.056325 -4.7494988
-2.0679159 -0.056325 -4.7494988
-2.0751729 -0.056325 -4.7494988
-2.0415981 -0.055220999 -4.6563711
-2.048713 -0.055220999 -4.6563711
-2.016293 -0.054159001 -4.5668259
-2.0232711 -0.054159001 -4.5668259
-2.0700569 -0.055220999 -4.6563711
-2.118716 -0.056325 -4.7494988
-2.125973 -0.056325 -4.7494988
-2.13323 -0.056325 -4.7494988
-0.46256599 -0.011734 -0.98947901
-0.46407801 -0.011734 -0.98947901
-0.46558899 -0.011734 -0.98947901
-0.46710101 -0.011734 -0.98947901
-0.468613 -0.011734 -0.98947901
-0.47012499 -0.011734 -0.98947901
-0.47163701 -0.011734 -0.98947901
-0.473149 -0.011734 -0.98947901
-0.47466099 -0.011734 -0.98947901
-0.60466403 -0.014901 -1.2564811
-1.916786 -0.046937998 -3.957916
-1.922834 -0.046937998 -3.957916
-1.928881 -0.046937998 -3.957916
-1.934929 -0.046937998 -3.957916
-1.940976 -0.046937998 -3.957916
-1.980024 -0.047733001 -4.0249991
-2.055865 -0.049408 -4.1662269
-2.21787 -0.053137001 -4.480659
-2.2674999 -0.054159001 -4.5668259
-2.274478 -0.054159001 -4.5668259
-2.281456 -0.054159001 -4.5668259
-2.4655681 -0.057475001 -4.846427
-2.4729731 -0.057475001 -4.846427
-2.532053 -0.058672 -4.9473939
-0.51245803 -0.011734 -0.98947901
-0.51397002 -0.011734 -0.98947901
-0.51548201 -0.011734 -0.98947901
-0.516994 -0.011734 -0.98947901
-0.51850599 -0.011734 -0.98947901
-0.53664899 -0.011734 -0.98947901
-0.53816003 -0.011734 -0.98947901
-0.53967202 -0.011734 -0.98947901
-0.54118401 -0.011734 -0.98947901
-0.542696 -0.011734 -0.98947901
-0.54420799 -0.011734 -0.98947901
-0.54571998 -0.011734 -0.98947901
-0.54723197 -0.011734 -0.98947901
-0.54874402 -0.011734 -0.98947901
-0.55025601 -0.011734 -0.98947901
-0.55176699 -0.011734 -0.98947901
-0.55327898 -0.011734 -0.98947901
-0.55479097 -0.011734 -0.98947901
-0.55630302 -0.011734 -0.98947901
-0.55781502 -0.011734 -0.98947901
-0.74993598 -0.015733 -1.326676
-0.75196302 -0.015733 -1.326676
-0.75398999 -0.015733 -1.326676
-0.56386298 -0.011734 -0.98947901
-2.312921 -0.044004001 -3.710546
-2.3185911 -0.044004001 -3.710546
-2.32426 -0.044004001 -3.710546
-2.378432 -0.044702001 -3.769444
-2.3469391 -0.044004001 -3.710546
-2.389951 -0.044702001 -3.769444
-2.3752871 -0.044004001 -3.710546
-1.190478 -0.022002 -1.855273
-1.193313 -0.022002 -1.855273
-9.6598969 -0.176016 -14.842183
-9.6825752 -0.176016 -14.842183
-9.7052536 -0.176016 -14.842183
-9.727932 -0.176016 -14.842183
-9.7506104 -0.176016 -14.842183
-9.7732887 -0.176016 -14.842183
-9.7959671 -0.176016 -14.842183
-10.473222 -0.18775 -15.831662
-9.8413239 -0.176016 -14.842183
-9.8640022 -0.176016 -14.842183
-9.8866806 -0.176016 -14.842183
-9.909359 -0.176016 -14.842183
-0.81861299 -0.014152 -1.193341
-0.820436 -0.014152 -1.193341
-0.83060801 -0.014296 -1.205456
-0.83244997 -0.014296 -1.205456
-0.83429199 -0.014296 -1.205456
-0.83191001 -0.014224 -1.199368
-0.83374298 -0.014224 -1.199368
-0.83137703 -0.014152 -1.193341
-0.83319998 -0.014152 -1.193341
-0.83084899 -0.014081 -1.1873749
-0.82441902 -0.013942 -1.175619
-0.818115 -0.013805 -1.164093
-0.819893 -0.013805 -1.164093
-0.82167202 -0.013805 -1.164093
-0.82345098 -0.013805 -1.164093
-0.82120401 -0.013738 -1.158414
-0.81897902 -0.013671 -1.152791
-0.82073998 -0.013671 -1.152791
-0.818528 -0.013605 -1.147222
-0.82028103 -0.013605 -1.147222
-0.822034 -0.013605 -1.147222
-0.82378697 -0.013605 -1.147222
-0.82554001 -0.013605 -1.147222
-0.82729298 -0.013605 -1.147222
-0.82904601 -0.013605 -1.147222
-0.83079898 -0.013605 -1.147222
-0.82854903 -0.01354 -1.141706
-0.83029401 -0.01354 -1.141706
-0.83203799 -0.01354 -1.141706
-0.83378297 -0.01354 -1.141706
-0.835527 -0.01354 -1.141706
-0.83727199 -0.01354 -1.141706
-0.83901602 -0.01354 -1.141706
-0.84076101 -0.01354 -1.141706
-0.84250498 -0.01354 -1.141706
-0.84425002 -0.01354 -1.141706
-0.85008103 -0.013605 -1.147222
-0.85596901 -0.013671 -1.152791
-0.85773098 -0.013671 -1.152791
-0.859492 -0.013671 -1.152791
-0.85709298 -0.013605 -1.147222
-0.85471702 -0.01354 -1.141706
-0.86059898 -0.013605 -1.147222
-0.86235201 -0.013605 -1.147222
-0.86410397 -0.013605 -1.147222
-0.86169499 -0.01354 -1.141706
-0.86760998 -0.013605 -1.147222
-0.86518401 -0.01354 -1.141706
-0.86692798 -0.01354 -1.141706
-0.86867303 -0.01354 -1.141706
-0.870417 -0.01354 -1.141706
-0.87216198 -0.01354 -1.141706
-0.87390602 -0.01354 -1.141706
-0.875651 -0.01354 -1.141706
-0.87739497 -0.01354 -1.141706
-0.87914002 -0.01354 -1.141706
-0.88088399 -0.01354 -1.141706
-0.88262898 -0.01354 -1.141706
-0.88437301 -0.01354 -1.141706
-0.88611799 -0.01354 -1.141706
-0.88786203 -0.01354 -1.141706
-0.88960701 -0.01354 -1.141706
-0.89135098 -0.01354 -1.141706
-0.89309502 -0.01354 -1.141706
-11.63292 -0.176016 -14.842183
-11.655599 -0.176016 -14.842183
-11.678277 -0.176016 -14.842183
-11.700955 -0.176016 -14.842183
-11.723634 -0.176016 -14.842183
-11.746312 -0.176016 -14.842183
-0.91053998 -0.01354 -1.141706
-0.91228497 -0.01354 -1.141706
-0.914029 -0.01354 -1.141706
-0.91577399 -0.01354 -1.141706
-0.91751802 -0.01354 -1.141706
-0.91926301 -0.01354 -1.141706
-0.92100698 -0.01354 -1.141706
-0.92624098 -0.01354 -1.141706
-0.92798501 -0.01354 -1.141706
-0.92973 -0.01354 -1.141706
-0.93147397 -0.01354 -1.141706
-0.93321902 -0.01354 -1.141706
-0.93496299 -0.01354 -1.141706
-0.93670797 -0.01354 -1.141706
-13.109967 -0.18775 -15.831662
-14.072312 -0.201161 -16.962496
-13.158348 -0.18775 -15.831662
-14.124148 -0.201161 -16.962496
-14.150066 -0.201161 -16.962496
-15.266445 -0.216635 -18.267303
-15.322269 -0.216635 -18.267303
-15.378093 -0.216635 -18.267303
-15.406005 -0.216635 -18.267303
-14.331494 -0.201161 -16.962496
-13.400251 -0.18775 -15.831662
-13.424441 -0.18775 -15.831662
-13.448632 -0.18775 -15.831662
-12.630771 -0.176016 -14.842183
-12.653449 -0.176016 -14.842183
-12.676127 -0.176016 -14.842183
-12.698807 -0.176016 -14.842183
-12.721485 -0.176016 -14.842183
-12.744164 -0.176016 -14.842183
-13.617965 -0.18775 -15.831662
-13.642155 -0.18775 -15.831662
-13.666345 -0.18775 -15.831662
-1.013103 -0.013605 -1.147222
-1.014856 -0.013605 -1.147222
-1.011721 -0.01354 -1.141706
-1.013466 -0.01354 -1.141706
-1.01521 -0.01354 -1.141706
-1.016955 -0.01354 -1.141706
-1.018699 -0.01354 -1.141706
-1.025373 -0.013605 -1.147222
-1.0221879 -0.01354 -1.141706
-1.028879 -0.013605 -1.147222
-1.025677 -0.01354 -1.141706
-1.037397 -0.013671 -1.152791
-1.039158 -0.013671 -1.152791
-1.051125 -0.013805 -1.164093
-1.063328 -0.013942 -1.175619
-1.081182 -0.014152 -1.193341
-1.083005 -0.014152 -1.193341
-1.090307 -0.014224 -1.199368
-1.097684 -0.014296 -1.205456
-1.099526 -0.014296 -1.205456
-14.488816 -0.18775 -15.831662
-14.513006 -0.18775 -15.831662
-14.537197 -0.18775 -15.831662
-13.6513 -0.176016 -14.842183
-14.585577 -0.18775 -15.831662
-14.609768 -0.18775 -15.831662
-15.679241 -0.201161 -16.962496
-15.705159 -0.201161 -16.962496
-16.94116 -0.216635 -18.267303
-16.969072 -0.216635 -18.267303
-18.413399 -0.234688 -19.789577
-20.120331 -0.25602299 -21.588631
-22.16865 -0.28162599 -23.747494
-22.204935 -0.28162599 -23.747494
-1.2280329 -0.014442 -1.21782
-1.229894 -0.014442 -1.21782
-1.2254699 -0.014369 -1.211607
-1.227321 -0.014369 -1.211607
-1.235476 -0.014442 -1.21782
-1.231024 -0.014369 -1.211607
-1.239197 -0.014442 -1.21782
-1.241058 -0.014442 -1.21782
-20.318388 -0.234688 -19.789577
-24.41835 -0.28162599 -23.747494
-20.378864 -0.234688 -19.789577
-24.490921 -0.28162599 -23.747494
-20.439339 -0.234688 -19.789577
-24.563492 -0.28162599 -23.747494
-24.599777 -0.28162599 -23.747494
-0.73101801 -0.048909001 -3.653461
-0.73659998 -0.048909001 -3.653461
-0.88418001 -0.049674001 -3.710546
-0.88985002 -0.049674001 -3.710546
-0.89551902 -0.049674001 -3.710546
-0.90118903 -0.049674001 -3.710546
-0.90685803 -0.049674001 -3.710546
-0.91252798 -0.049674001 -3.710546
-0.91819799 -0.049674001 -3.710546
-0.92386699 -0.049674001 -3.710546
-0.929537 -0.049674001 -3.710546
-0.935206 -0.049674001 -3.710546
-0.94087601 -0.049674001 -3.710546
-0.94654602 -0.049674001 -3.710546
-0.95221502 -0.049674001 -3.710546
-0.95788503 -0.049674001 -3.710546
-0.96355402 -0.049674001 -3.710546
-1.112862 -0.053883001 -4.0249991
-1.119013 -0.053883001 -4.0249991
-1.10641 -0.052985001 -3.957916
-1.150818 -0.054811999 -4.0943961
-1.137463 -0.053883001 -4.0249991
-1.124553 -0.052985001 -3.957916
-1.1306 -0.052985001 -3.957916
-1.155913 -0.053883001 -4.0249991
-1.224317 -0.056770001 -4.240624
-1.292758 -0.057801999 -4.3177261
-1.276153 -0.056770001 -4.240624
-1.1774991 -0.052117001 -3.8930321
-1.164359 -0.051275998 -3.830241
-1.170212 -0.051275998 -3.830241
-1.176064 -0.051275998 -3.830241
-1.181917 -0.051275998 -3.830241
-1.2072411 -0.052117001 -3.8930321
-1.213189 -0.052117001 -3.8930321
-1.199474 -0.051275998 -3.830241
-1.225086 -0.052117001 -3.8930321
-1.231035 -0.052117001 -3.8930321
-1.300965 -0.054811999 -4.0943961
-1.3785239 -0.057801999 -4.3177261
-1.410772 -0.058871999 -4.3976841
-1.444237 -0.059983 -4.480659
-1.507988 -0.062336002 -4.6563711
-1.515103 -0.062336002 -4.6563711
-1.492944 -0.061136998 -4.5668259
-1.499922 -0.061136998 -4.5668259
-1.567176 -0.063582003 -4.7494988
-1.574433 -0.063582003 -4.7494988
-1.492161 -0.059983 -4.480659
-1.471248 -0.058871999 -4.3976841
-1.451095 -0.057801999 -4.3177261
-1.457693 -0.057801999 -4.3177261
-1.342266 -0.052985001 -3.957916
-1.284108 -0.050462 -3.769444
-1.289868 -0.050462 -3.769444
-1.275383 -0.049674001 -3.710546
-1.281052 -0.049674001 -3.710546
-1.2867219 -0.049674001 -3.710546
-1.292392 -0.049674001 -3.710546
-1.298061 -0.049674001 -3.710546
-1.303731 -0.049674001 -3.710546
-1.309401 -0.049674001 -3.710546
-1.31507 -0.049674001 -3.710546
-1.32074 -0.049674001 -3.710546
-1.326409 -0.049674001 -3.710546
-1.3320791 -0.049674001 -3.710546
-1.337749 -0.049674001 -3.710546
-1.343418 -0.049674001 -3.710546
-1.349088 -0.049674001 -3.710546
-1.354757 -0.049674001 -3.710546
-1.360427 -0.049674001 -3.710546
-1.366097 -0.049674001 -3.710546
-1.371766 -0.049674001 -3.710546
-1.377436 -0.049674001 -3.710546
-1.383105 -0.049674001 -3.710546
-1.388775 -0.049674001 -3.710546
-1.3944449 -0.049674001 -3.710546
-1.4001141 -0.049674001 -3.710546
-1.405784 -0.049674001 -3.710546
-1.411453 -0.049674001 -3.710546
-1.417123 -0.049674001 -3.710546
-1.422793 -0.049674001 -3.710546
-1.428462 -0.049674001 -3.710546
-1.4568959 -0.050462 -3.769444
-1.4398021 -0.049674001 -3.710546
-1.468415 -0.050462 -3.769444
-1.474175 -0.050462 -3.769444
-1.503804 -0.051275998 -3.830241
-1.509657 -0.051275998 -3.830241
-1.515509 -0.051275998 -3.830241
-1.5213619 -0.051275998 -3.830241
-1.5272141 -0.051275998 -3.830241
-1.508732 -0.050462 -3.769444
-1.514492 -0.050462 -3.769444
-1.544772 -0.051275998 -3.830241
-1.576044 -0.052117001 -3.8930321
-1.581993 -0.052117001 -3.8930321
-1.5879411 -0.052117001 -3.8930321
-1.59389 -0.052117001 -3.8930321
-1.599838 -0.052117001 -3.8930321
-1.605786 -0.052117001 -3.8930321
-1.611735 -0.052117001 -3.8930321
-1.701357 -0.054811999 -4.0943961
-1.800755 -0.057801999 -4.3177261
-1.875555 -0.059983 -4.480659
-1.882401 -0.059983 -4.480659
-1.963335 -0.062336002 -4.6563711
-1.896094 -0.059983 -4.480659
-1.939535 -0.061136998 -4.5668259
-1.9465131 -0.061136998 -4.5668259
-2.031631 -0.063582003 -4.7494988
-2.038888 -0.063582003 -4.7494988
-2.0060239 -0.062336002 -4.6563711
-2.013139 -0.062336002 -4.6563711
-2.0606589 -0.063582003 -4.7494988
-2.0679159 -0.063582003 -4.7494988
-2.034483 -0.062336002 -4.6563711
-2.002337 -0.061136998 -4.5668259
-2.009315 -0.061136998 -4.5668259
-1.978249 -0.059983 -4.480659
-1.985096 -0.059983 -4.480659
-1.991942 -0.059983 -4.480659
-2.077172 -0.062336002 -4.6563711
-2.0842869 -0.062336002 -4.6563711
-2.13323 -0.063582003 -4.7494988
-0.46256599 -0.013246 -0.98947901
-0.46407801 -0.013246 -0.98947901
-0.46558899 -0.013246 -0.98947901
-0.46710101 -0.013246 -0.98947901
-0.468613 -0.013246 -0.98947901
-0.47012499 -0.013246 -0.98947901
-0.47163701 -0.013246 -0.98947901
-0.473149 -0.013246 -0.98947901
-0.47466099 -0.013246 -0.98947901
-0.47617301 -0.013246 -0.98947901
-0.477685 -0.013246 -0.98947901
-1.916786 -0.052985001 -3.957916
-2.1767931 -0.059983 -4.480659
-2.183639 -0.059983 -4.480659
-2.23261 -0.061136998 -4.5668259
-2.007906 -0.054811999 -4.0943961
-2.1633601 -0.058871999 -4.3976841
-2.170079 -0.058871999 -4.3976841
-2.3509431 -0.063582003 -4.7494988
-2.3582001 -0.063582003 -4.7494988
-2.3654571 -0.063582003 -4.7494988
-2.372714 -0.063582003 -4.7494988
-0.51245803 -0.013246 -0.98947901
-0.51397002 -0.013246 -0.98947901
-0.51548201 -0.013246 -0.98947901
-0.516994 -0.013246 -0.98947901
-0.51850599 -0.013246 -0.98947901
-0.52001798 -0.013246 -0.98947901
-0.52152997 -0.013246 -0.98947901
-0.52304101 -0.013246 -0.98947901
-0.524553 -0.013246 -0.98947901
-0.53664899 -0.013246 -0.98947901
-0.53816003 -0.013246 -0.98947901
-0.53967202 -0.013246 -0.98947901
-0.54118401 -0.013246 -0.98947901
-0.542696 -0.013246 -0.98947901
-0.54420799 -0.013246 -0.98947901
-0.54571998 -0.013246 -0.98947901
-0.54723197 -0.013246 -0.98947901
-0.54874402 -0.013246 -0.98947901
-0.55025601 -0.013246 -0.98947901
-0.55176699 -0.013246 -0.98947901
-0.55327898 -0.013246 -0.98947901
-0.55479097 -0.013246 -0.98947901
-0.55630302 -0.013246 -0.98947901
-0.55781502 -0.013246 -0.98947901
-0.55932701 -0.013246 -0.98947901
-0.560839 -0.013246 -0.98947901
-0.56235099 -0.013246 -0.98947901
-0.56386298 -0.013246 -0.98947901
-0.56537497 -0.013246 -0.98947901
-1.153626 -0.024837 -1.855273
-1.156461 -0.024837 -1.855273
-1.168424 -0.025032001 -1.869881
-2.378432 -0.050462 -3.769444
-2.384192 -0.050462 -3.769444
-2.389951 -0.050462 -3.769444
-2.3752871 -0.049674001 -3.710546
-2.3809559 -0.049674001 -3.710546
-10.303889 -0.211941 -15.831662
-10.32808 -0.211941 -15.831662
-9.7052536 -0.19869401 -14.842183
-9.727932 -0.19869401 -14.842183
-9.7506104 -0.19869401 -14.842183
-9.7732887 -0.19869401 -14.842183
-9.7959671 -0.19869401 -14.842183
-10.473222 -0.211941 -15.831662
-10.497412 -0.211941 -15.831662
-9.8640022 -0.19869401 -14.842183
-9.8866806 -0.19869401 -14.842183
-9.909359 -0.19869401 -14.842183
-9.9320374 -0.19869401 -14.842183
-9.9547157 -0.19869401 -14.842183
-0.82876599 -0.016138 -1.205456
-0.83060801 -0.016138 -1.205456
-0.83244997 -0.016138 -1.205456
-0.83007801 -0.016055999 -1.199368
-0.82773 -0.015975 -1.193341
-0.82955301 -0.015975 -1.193341
-0.83137703 -0.015975 -1.193341
-0.83319998 -0.015975 -1.193341
-0.83084899 -0.015896 -1.1873749
-0.83684701 -0.015975 -1.193341
-0.82621503 -0.015737999 -1.175619
-0.82801098 -0.015737999 -1.175619
-0.82167202 -0.015584 -1.164093
-0.82345098 -0.015584 -1.164093
-0.82523 -0.015584 -1.164093
-0.82700801 -0.015584 -1.164093
-0.82474399 -0.015508 -1.158414
-0.82250202 -0.015433 -1.152791
-0.82426298 -0.015433 -1.152791
-0.82602501 -0.015433 -1.152791
-0.82778603 -0.015433 -1.152791
-0.829548 -0.015433 -1.152791
-0.83130902 -0.015433 -1.152791
-0.83307099 -0.015433 -1.152791
-0.83483201 -0.015433 -1.152791
-0.83255202 -0.015358 -1.147222
-0.83029401 -0.015284 -1.141706
-0.83203799 -0.015284 -1.141706
-0.83378297 -0.015284 -1.141706
-0.835527 -0.015284 -1.141706
-0.83727199 -0.015284 -1.141706
-0.84306902 -0.015358 -1.147222
-0.84076101 -0.015284 -1.141706
-0.84250498 -0.015284 -1.141706
-0.84425002 -0.015284 -1.141706
-0.845994 -0.015284 -1.141706
-0.85596901 -0.015433 -1.152791
-0.86614001 -0.015584 -1.164093
-0.86368501 -0.015508 -1.158414
-0.85709298 -0.015358 -1.147222
-0.85471702 -0.015284 -1.141706
-0.85646099 -0.015284 -1.141706
-0.85820597 -0.015284 -1.141706
-0.85995001 -0.015284 -1.141706
-0.86169499 -0.015284 -1.141706
-0.86343902 -0.015284 -1.141706
-0.86518401 -0.015284 -1.141706
-0.86692798 -0.015284 -1.141706
-0.86867303 -0.015284 -1.141706
-0.870417 -0.015284 -1.141706
-0.87216198 -0.015284 -1.141706
-0.87390602 -0.015284 -1.141706
-0.875651 -0.015284 -1.141706
-0.87739497 -0.015284 -1.141706
-0.87914002 -0.015284 -1.141706
-0.88088399 -0.015284 -1.141706
-0.88262898 -0.015284 -1.141706
-0.88437301 -0.015284 -1.141706
-0.88611799 -0.015284 -1.141706
-0.88786203 -0.015284 -1.141706
-0.88960701 -0.015284 -1.141706
-0.89135098 -0.015284 -1.141706
-0.89309502 -0.015284 -1.141706
-0.89484 -0.015284 -1.141706
-0.89658499 -0.015284 -1.141706
-0.89832902 -0.015284 -1.141706
-0.90007299 -0.015284 -1.141706
-11.723634 -0.19869401 -14.842183
-11.746312 -0.19869401 -14.842183
-11.768991 -0.19869401 -14.842183
-0.91053998 -0.015284 -1.141706
-0.91228497 -0.015284 -1.141706
-0.914029 -0.015284 -1.141706
-0.91577399 -0.015284 -1.141706
-0.91751802 -0.015284 -1.141706
-0.91926301 -0.015284 -1.141706
-0.92100698 -0.015284 -1.141706
-0.92275202 -0.015284 -1.141706
-0.92973 -0.015284 -1.141706
-14.020475 -0.227079 -16.962496
-13.109967 -0.211941 -15.831662
-14.072312 -0.227079 -16.962496
-14.09823 -0.227079 -16.962496
-15.210621 -0.24454699 -18.267303
-14.150066 -0.227079 -16.962496
-15.266445 -0.24454699 -18.267303
-15.294357 -0.24454699 -18.267303
-15.322269 -0.24454699 -18.267303
-14.253739 -0.227079 -16.962496
-14.279657 -0.227079 -16.962496
-13.351871 -0.211941 -15.831662
-13.376061 -0.211941 -15.831662
-13.400251 -0.211941 -15.831662
-13.424441 -0.211941 -15.831662
-12.608092 -0.19869401 -14.842183
-12.630771 -0.19869401 -14.842183
-12.653449 -0.19869401 -14.842183
-12.676127 -0.19869401 -14.842183
-12.698807 -0.19869401 -14.842183
-13.569584 -0.211941 -15.831662
-12.744164 -0.19869401 -14.842183
-1.006091 -0.015358 -1.147222
-1.007844 -0.015358 -1.147222
-1.0095969 -0.015358 -1.147222
-1.01135 -0.015358 -1.147222
-1.008232 -0.015284 -1.141706
-1.009977 -0.015284 -1.141706
-1.011721 -0.015284 -1.141706
-1.013466 -0.015284 -1.141706
-1.01521 -0.015284 -1.141706
-1.016955 -0.015284 -1.141706
-1.018699 -0.015284 -1.141706
-1.025373 -0.015358 -1.147222
-1.0221879 -0.015284 -1.141706
-1.028879 -0.015358 -1.147222
-1.025677 -0.015284 -1.141706
-1.037397 -0.015433 -1.152791
-1.039158 -0.015433 -1.152791
-1.0409189 -0.015433 -1.152791
-1.047767 -0.015508 -1.158414
-1.059877 -0.015660999 -1.169827
-1.07759 -0.015896 -1.1873749
-1.084828 -0.015975 -1.193341
-14.513006 -0.211941 -15.831662
-14.537197 -0.211941 -15.831662
-13.6513 -0.19869401 -14.842183
-14.585577 -0.211941 -15.831662
-13.696657 -0.19869401 -14.842183
-14.633958 -0.211941 -15.831662
-14.658149 -0.211941 -15.831662
-15.731077 -0.227079 -16.962496
-15.756995 -0.227079 -16.962496
-16.996984 -0.24454699 -18.267303
-17.024897 -0.24454699 -18.267303
-18.473875 -0.26492599 -19.789577
-17.080719 -0.24454699 -18.267303
-20.219292 -0.28900999 -21.588631
-20.252279 -0.28900999 -21.588631
-20.285265 -0.28900999 -21.588631
-20.318253 -0.28900999 -21.588631
-1.2306221 -0.016387001 -1.224098
-1.226172 -0.016302999 -1.21782
-1.2280329 -0.016302999 -1.21782
-1.217407 -0.016138 -1.205456
-1.219249 -0.016138 -1.205456
-1.227321 -0.01622 -1.211607
-1.231024 -0.01622 -1.211607
-24.490921 -0.317911 -23.747494
-20.439339 -0.26492599 -19.789577
-24.563492 -0.317911 -23.747494
-24.599777 -0.317911 -23.747494
-0.88418001 -0.055342998 -3.710546
-0.88985002 -0.055342998 -3.710546
-0.89551902 -0.055342998 -3.710546
-0.90118903 -0.055342998 -3.710546
-0.90685803 -0.055342998 -3.710546
-0.91252798 -0.055342998 -3.710546
-0.91819799 -0.055342998 -3.710546
-0.92386699 -0.055342998 -3.710546
-0.929537 -0.055342998 -3.710546
-0.935206 -0.055342998 -3.710546
-0.94087601 -0.055342998 -3.710546
-0.94654602 -0.055342998 -3.710546
-0.95221502 -0.055342998 -3.710546
-0.95788503 -0.055342998 -3.710546
-0.96355402 -0.055342998 -3.710546
-1.112862 -0.060033001 -4.0249991
-1.082324 -0.058065001 -3.8930321
-1.088272 -0.058065001 -3.8930321
-1.131313 -0.060033001 -4.0249991
-1.118505 -0.059032999 -3.957916
-1.124553 -0.059032999 -3.957916
-1.1306 -0.059032999 -3.957916
-1.175843 -0.061067998 -4.0943961
-1.246577 -0.064398997 -4.3177261
-1.316698 -0.065591998 -4.3976841
-1.299356 -0.064398997 -4.3177261
-1.197124 -0.059032999 -3.957916
-1.164359 -0.057128001 -3.830241
-1.170212 -0.057128001 -3.830241
-1.176064 -0.057128001 -3.830241
-1.201293 -0.058065001 -3.8930321
-1.2072411 -0.058065001 -3.8930321
-1.213189 -0.058065001 -3.8930321
-1.219138 -0.058065001 -3.8930321
-1.225086 -0.058065001 -3.8930321
-1.251552 -0.059032999 -3.957916
-1.397333 -0.065591998 -4.3976841
-1.430544 -0.066830002 -4.480659
-1.465032 -0.068115003 -4.5668259
-1.47201 -0.068115003 -4.5668259
-1.538148 -0.070839003 -4.7494988
-1.545405 -0.070839003 -4.7494988
-1.492944 -0.068115003 -4.5668259
-1.499922 -0.068115003 -4.5668259
-1.536447 -0.069449998 -4.6563711
-1.5435621 -0.069449998 -4.6563711
-1.464528 -0.065591998 -4.3976841
-1.4444979 -0.064398997 -4.3177261
-1.451095 -0.064398997 -4.3177261
-1.457693 -0.064398997 -4.3177261
-1.342266 -0.059032999 -3.957916
-1.284108 -0.056221999 -3.769444
-1.289868 -0.056221999 -3.769444
-1.275383 -0.055342998 -3.710546
-1.281052 -0.055342998 -3.710546
-1.2867219 -0.055342998 -3.710546
-1.292392 -0.055342998 -3.710546
-1.298061 -0.055342998 -3.710546
-1.303731 -0.055342998 -3.710546
-1.309401 -0.055342998 -3.710546
-1.31507 -0.055342998 -3.710546
-1.32074 -0.055342998 -3.710546
-1.326409 -0.055342998 -3.710546
-1.3320791 -0.055342998 -3.710546
-1.337749 -0.055342998 -3.710546
-1.343418 -0.055342998 -3.710546
-1.349088 -0.055342998 -3.710546
-1.354757 -0.055342998 -3.710546
-1.360427 -0.055342998 -3.710546
-1.366097 -0.055342998 -3.710546
-1.371766 -0.055342998 -3.710546
-1.377436 -0.055342998 -3.710546
-1.383105 -0.055342998 -3.710546
-1.388775 -0.055342998 -3.710546
-1.3944449 -0.055342998 -3.710546
-1.4001141 -0.055342998 -3.710546
-1.405784 -0.055342998 -3.710546
-1.433858 -0.056221999 -3.769444
-1.439617 -0.056221999 -3.769444
-1.445377 -0.056221999 -3.769444
-1.451136 -0.056221999 -3.769444
-1.480394 -0.057128001 -3.830241
-1.462656 -0.056221999 -3.769444
-1.492099 -0.057128001 -3.830241
-1.497952 -0.057128001 -3.830241
-1.528457 -0.058065001 -3.8930321
-1.534405 -0.058065001 -3.8930321
-1.540354 -0.058065001 -3.8930321
-1.5720741 -0.059032999 -3.957916
-1.552251 -0.058065001 -3.8930321
-1.533067 -0.057128001 -3.830241
-1.538919 -0.057128001 -3.830241
-1.570096 -0.058065001 -3.8930321
-1.576044 -0.058065001 -3.8930321
-1.581993 -0.058065001 -3.8930321
-1.599838 -0.058065001 -3.8930321
-1.605786 -0.058065001 -3.8930321
-1.611735 -0.058065001 -3.8930321
-1.701357 -0.061067998 -4.0943961
-1.800755 -0.064398997 -4.3177261
-1.840822 -0.065591998 -4.3976841
-1.847542 -0.065591998 -4.3976841
-1.925579 -0.068115003 -4.5668259
-1.932557 -0.068115003 -4.5668259
-1.939535 -0.068115003 -4.5668259
-1.9465131 -0.068115003 -4.5668259
-2.031631 -0.070839003 -4.7494988
-2.038888 -0.070839003 -4.7494988
-2.0060239 -0.069449998 -4.6563711
-2.013139 -0.069449998 -4.6563711
-2.0606589 -0.070839003 -4.7494988
-2.0679159 -0.070839003 -4.7494988
-1.9953589 -0.068115003 -4.5668259
-1.9645571 -0.066830002 -4.480659
-1.971403 -0.066830002 -4.480659
-1.941615 -0.065591998 -4.3976841
-1.91291 -0.064398997 -4.3177261
-1.955054 -0.065591998 -4.3976841
-2.0372269 -0.068115003 -4.5668259
-2.044205 -0.068115003 -4.5668259
-2.0914021 -0.069449998 -4.6563711
-0.46256599 -0.014758 -0.98947901
-0.46407801 -0.014758 -0.98947901
-0.46558899 -0.014758 -0.98947901
-0.46710101 -0.014758 -0.98947901
-0.468613 -0.014758 -0.98947901
-0.47012499 -0.014758 -0.98947901
-0.47163701 -0.014758 -0.98947901
-0.473149 -0.014758 -0.98947901
-0.47466099 -0.014758 -0.98947901
-0.47617301 -0.014758 -0.98947901
-0.477685 -0.014758 -0.98947901
-2.169946 -0.066830002 -4.480659
-2.35449 -0.072284997 -4.846427
-2.3618951 -0.072284997 -4.846427
-2.3692999 -0.072284997 -4.846427
-2.2835009 -0.069449998 -4.6563711
-2.290616 -0.069449998 -4.6563711
-2.2977309 -0.069449998 -4.6563711
-2.3509431 -0.070839003 -4.7494988
-2.3582001 -0.070839003 -4.7494988
-2.4137321 -0.072284997 -4.846427
-2.4211371 -0.072284997 -4.846427
-2.4791369 -0.073790997 -4.9473939
-0.51397002 -0.014758 -0.98947901
-0.51548201 -0.014758 -0.98947901
-0.516994 -0.014758 -0.98947901
-0.51850599 -0.014758 -0.98947901
-0.52001798 -0.014758 -0.98947901
-0.52152997 -0.014758 -0.98947901
-0.52304101 -0.014758 -0.98947901
-0.524553 -0.014758 -0.98947901
-0.53664899 -0.014758 -0.98947901
-0.53816003 -0.014758 -0.98947901
-0.53967202 -0.014758 -0.98947901
-0.54118401 -0.014758 -0.98947901
-0.542696 -0.014758 -0.98947901
-0.54420799 -0.014758 -0.98947901
-0.54571998 -0.014758 -0.98947901
-0.54723197 -0.014758 -0.98947901
-0.54874402 -0.014758 -0.98947901
-0.55025601 -0.014758 -0.98947901
-0.55176699 -0.014758 -0.98947901
-0.55327898 -0.014758 -0.98947901
-0.55479097 -0.014758 -0.98947901
-0.55630302 -0.014758 -0.98947901
-0.55781502 -0.014758 -0.98947901
-0.55932701 -0.014758 -0.98947901
-0.560839 -0.014758 -0.98947901
-0.56235099 -0.014758 -0.98947901
-0.56386298 -0.014758 -0.98947901
-0.568398 -0.014758 -0.98947901
-0.56990999 -0.014758 -0.98947901
-2.3035569 -0.056221999 -3.769444
-2.3093171 -0.056221999 -3.769444
-2.3150771 -0.056221999 -3.769444
-1.153626 -0.027672 -1.855273
-1.156461 -0.027672 -1.855273
-2.3185911 -0.055342998 -3.710546
-2.32426 -0.055342998 -3.710546
-2.384192 -0.056221999 -3.769444
-2.352608 -0.055342998 -3.710546
-2.358278 -0.055342998 -3.710546
-2.3639481 -0.055342998 -3.710546
-2.369617 -0.055342998 -3.710546
-2.3752871 -0.055342998 -3.710546
-2.3809559 -0.055342998 -3.710546
-10.35227 -0.236131 -15.831662
-9.727932 -0.22137301 -14.842183
-9.7506104 -0.22137301 -14.842183
-10.424841 -0.236131 -15.831662
-9.7959671 -0.22137301 -14.842183
-10.473222 -0.236131 -15.831662
-9.8413239 -0.22137301 -14.842183
-9.8640022 -0.22137301 -14.842183
-9.8866806 -0.22137301 -14.842183
-9.909359 -0.22137301 -14.842183
-9.9320374 -0.22137301 -14.842183
-9.9547157 -0.22137301 -14.842183
-9.9773941 -0.22137301 -14.842183
-10.000072 -0.22137301 -14.842183
-0.83244997 -0.01798 -1.205456
-0.82590699 -0.017798999 -1.193341
-0.81543702 -0.017534001 -1.175619
-0.82540601 -0.01771 -1.1873749
-0.81902999 -0.017534001 -1.175619
-0.82903397 -0.01771 -1.1873749
-0.822622 -0.017534001 -1.175619
-0.83684701 -0.017798999 -1.193341
-0.82621503 -0.017534001 -1.175619
-0.819893 -0.017363001 -1.164093
-0.81766403 -0.017278001 -1.158414
-0.82345098 -0.017363001 -1.164093
-0.82523 -0.017363001 -1.164093
-0.82700801 -0.017363001 -1.164093
-0.82878703 -0.017363001 -1.164093
-0.83056599 -0.017363001 -1.164093
-0.82828403 -0.017278001 -1.158414
-0.82602501 -0.017193999 -1.152791
-0.82778603 -0.017193999 -1.152791
-0.829548 -0.017193999 -1.152791
-0.83536398 -0.017278001 -1.158414
-0.837134 -0.017278001 -1.158414
-0.83483201 -0.017193999 -1.152791
-0.83255202 -0.017111 -1.147222
-0.83430499 -0.017111 -1.147222
-0.83605802 -0.017111 -1.147222
-0.83378297 -0.017029 -1.141706
-0.83956403 -0.017111 -1.147222
-0.84131598 -0.017111 -1.147222
-0.84306902 -0.017111 -1.147222
-0.84076101 -0.017029 -1.141706
-0.84250498 -0.017029 -1.141706
-0.84425002 -0.017029 -1.141706
-0.85008103 -0.017111 -1.147222
-0.86436099 -0.017363001 -1.164093
-0.87040597 -0.017448001 -1.169827
-0.86791801 -0.017363001 -1.164093
-0.85709298 -0.017111 -1.147222
-0.85471702 -0.017029 -1.141706
-0.85646099 -0.017029 -1.141706
-0.85820597 -0.017029 -1.141706
-0.85995001 -0.017029 -1.141706
-0.86169499 -0.017029 -1.141706
-0.86343902 -0.017029 -1.141706
-0.86518401 -0.017029 -1.141706
-0.86692798 -0.017029 -1.141706
-0.86867303 -0.017029 -1.141706
-0.870417 -0.017029 -1.141706
-0.87216198 -0.017029 -1.141706
-0.87390602 -0.017029 -1.141706
-0.875651 -0.017029 -1.141706
-0.87739497 -0.017029 -1.141706
-0.87914002 -0.017029 -1.141706
-0.88088399 -0.017029 -1.141706
-0.88262898 -0.017029 -1.141706
-0.88437301 -0.017029 -1.141706
-0.88611799 -0.017029 -1.141706
-0.88786203 -0.017029 -1.141706
-0.88960701 -0.017029 -1.141706
-0.89135098 -0.017029 -1.141706
-0.89309502 -0.017029 -1.141706
-0.89484 -0.017029 -1.141706
-0.89658499 -0.017029 -1.141706
-0.89832902 -0.017029 -1.141706
-0.90007299 -0.017029 -1.141706
-0.90181798 -0.017029 -1.141706
-0.90356201 -0.017029 -1.141706
-11.768991 -0.22137301 -14.842183
-11.791669 -0.22137301 -14.842183
-0.90879601 -0.017029 -1.141706
-0.91053998 -0.017029 -1.141706
-0.91228497 -0.017029 -1.141706
-0.914029 -0.017029 -1.141706
-0.91577399 -0.017029 -1.141706
-0.91751802 -0.017029 -1.141706
-0.91926301 -0.017029 -1.141706
-0.92100698 -0.017029 -1.141706
-0.92275202 -0.017029 -1.141706
-0.924496 -0.017029 -1.141706
-13.994557 -0.25299799 -16.962496
-14.020475 -0.25299799 -16.962496
-14.046393 -0.25299799 -16.962496
-15.154798 -0.272459 -18.267303
-15.18271 -0.272459 -18.267303
-15.210621 -0.272459 -18.267303
-15.238533 -0.272459 -18.267303
-15.266445 -0.272459 -18.267303
-14.201903 -0.25299799 -16.962496
-14.227821 -0.25299799 -16.962496
-13.30349 -0.236131 -15.831662
-13.327681 -0.236131 -15.831662
-13.351871 -0.236131 -15.831662
-13.376061 -0.236131 -15.831662
-12.562736 -0.22137301 -14.842183
-12.585414 -0.22137301 -14.842183
-12.608092 -0.22137301 -14.842183
-12.630771 -0.22137301 -14.842183
-12.653449 -0.22137301 -14.842183
-12.676127 -0.22137301 -14.842183
-1.0025851 -0.017111 -1.147222
-1.004338 -0.017111 -1.147222
-1.001254 -0.017029 -1.141706
-1.007844 -0.017111 -1.147222
-1.004743 -0.017029 -1.141706
-1.006488 -0.017029 -1.141706
-1.008232 -0.017029 -1.141706
-1.009977 -0.017029 -1.141706
-1.011721 -0.017029 -1.141706
-1.013466 -0.017029 -1.141706
-1.01521 -0.017029 -1.141706
-1.016955 -0.017029 -1.141706
-1.018699 -0.017029 -1.141706
-1.025373 -0.017111 -1.147222
-1.0221879 -0.017029 -1.141706
-1.028879 -0.017111 -1.147222
-1.025677 -0.017029 -1.141706
-1.037397 -0.017193999 -1.152791
-1.034138 -0.017111 -1.147222
-1.0409189 -0.017193999 -1.152791
-1.042681 -0.017193999 -1.152791
-1.0495369 -0.017278001 -1.158414
-1.0616651 -0.017448001 -1.169827
-1.084828 -0.017798999 -1.193341
-14.537197 -0.236131 -15.831662
-13.6513 -0.22137301 -14.842183
-14.585577 -0.236131 -15.831662
-13.696657 -0.22137301 -14.842183
-14.633958 -0.236131 -15.831662
-13.742014 -0.22137301 -14.842183
-14.682339 -0.236131 -15.831662
-14.706529 -0.236131 -15.831662
-15.782913 -0.25299799 -16.962496
-14.75491 -0.236131 -15.831662
-15.83475 -0.25299799 -16.962496
-15.860668 -0.25299799 -16.962496
-17.108631 -0.272459 -18.267303
-15.912505 -0.25299799 -16.962496
-17.164455 -0.272459 -18.267303
-17.192368 -0.272459 -18.267303
-18.655302 -0.29516399 -19.789577
-18.685541 -0.29516399 -19.789577
-20.417213 -0.32199699 -21.588631
-22.49522 -0.354197 -23.747494
-1.228752 -0.018258 -1.224098
-1.2306221 -0.018258 -1.224098
-1.226172 -0.018164 -1.21782
-1.2217669 -0.018071 -1.211607
-1.223619 -0.018071 -1.211607
-15.012007 -0.22137301 -14.842183
-15.034685 -0.22137301 -14.842183
-15.057364 -0.22137301 -14.842183
-15.080042 -0.22137301 -14.842183
-16.206329 -0.236131 -15.831662
-16.23052 -0.236131 -15.831662
-24.599777 -0.354197 -23.747494
-27.373404 -0.39355201 -26.386105
-24.67235 -0.354197 -23.747494
-0.88985002 -0.061012998 -3.710546
-0.89551902 -0.061012998 -3.710546
-0.90118903 -0.061012998 -3.710546
-0.90685803 -0.061012998 -3.710546
-0.91252798 -0.061012998 -3.710546
-0.91819799 -0.061012998 -3.710546
-0.92386699 -0.061012998 -3.710546
-0.929537 -0.061012998 -3.710546
-0.935206 -0.061012998 -3.710546
-0.94087601 -0.061012998 -3.710546
-0.94654602 -0.061012998 -3.710546
-0.95221502 -0.061012998 -3.710546
-0.95788503 -0.061012998 -3.710546
-0.96355402 -0.061012998 -3.710546
-1.112862 -0.066183001 -4.0249991
-1.082324 -0.064012997 -3.8930321
-1.088272 -0.064012997 -3.8930321
-1.112458 -0.065080002 -3.957916
-1.118505 -0.065080002 -3.957916
-1.124553 -0.065080002 -3.957916
-1.1306 -0.065080002 -3.957916
-1.196471 -0.068506002 -4.1662269
-1.269662 -0.072310999 -4.3976841
-1.266369 -0.070997 -4.3177261
-1.272966 -0.070997 -4.3177261
-1.367341 -0.075093001 -4.5668259
-1.323418 -0.072310999 -4.3976841
-1.217414 -0.066183001 -4.0249991
-1.183447 -0.064012997 -3.8930321
-1.170212 -0.062981002 -3.830241
-1.176064 -0.062981002 -3.830241
-1.201293 -0.064012997 -3.8930321
-1.2072411 -0.064012997 -3.8930321
-1.233409 -0.065080002 -3.957916
-1.239457 -0.065080002 -3.957916
-1.245504 -0.065080002 -3.957916
-1.390613 -0.072310999 -4.3976841
-1.479529 -0.076564997 -4.6563711
-1.4580539 -0.075093001 -4.5668259
-1.493758 -0.076564997 -4.6563711
-1.500873 -0.076564997 -4.6563711
-1.538148 -0.078096002 -4.7494988
-1.545405 -0.078096002 -4.7494988
-1.492944 -0.075093001 -4.5668259
-1.499922 -0.075093001 -4.5668259
-1.5069 -0.075093001 -4.5668259
-1.513878 -0.075093001 -4.5668259
-1.4122241 -0.069729 -4.240624
-1.418703 -0.069729 -4.240624
-1.451095 -0.070997 -4.3177261
-1.457693 -0.070997 -4.3177261
-1.342266 -0.065080002 -3.957916
-1.284108 -0.061981 -3.769444
-1.289868 -0.061981 -3.769444
-1.295627 -0.061981 -3.769444
-1.281052 -0.061012998 -3.710546
-1.2867219 -0.061012998 -3.710546
-1.292392 -0.061012998 -3.710546
-1.298061 -0.061012998 -3.710546
-1.303731 -0.061012998 -3.710546
-1.309401 -0.061012998 -3.710546
-1.31507 -0.061012998 -3.710546
-1.32074 -0.061012998 -3.710546
-1.326409 -0.061012998 -3.710546
-1.3320791 -0.061012998 -3.710546
-1.337749 -0.061012998 -3.710546
-1.343418 -0.061012998 -3.710546
-1.349088 -0.061012998 -3.710546
-1.354757 -0.061012998 -3.710546
-1.360427 -0.061012998 -3.710546
-1.366097 -0.061012998 -3.710546
-1.371766 -0.061012998 -3.710546
-1.377436 -0.061012998 -3.710546
-1.383105 -0.061012998 -3.710546
-1.388775 -0.061012998 -3.710546
-1.3944449 -0.061012998 -3.710546
-1.422338 -0.061981 -3.769444
-1.428098 -0.061981 -3.769444
-1.456984 -0.062981002 -3.830241
-1.462837 -0.062981002 -3.830241
-1.468689 -0.062981002 -3.830241
-1.474542 -0.062981002 -3.830241
-1.504663 -0.064012997 -3.8930321
-1.4862469 -0.062981002 -3.830241
-1.492099 -0.062981002 -3.830241
-1.522508 -0.064012997 -3.8930321
-1.528457 -0.064012997 -3.8930321
-1.559979 -0.065080002 -3.957916
-1.566026 -0.065080002 -3.957916
-1.5781209 -0.065080002 -3.957916
-1.558199 -0.064012997 -3.8930321
-1.564147 -0.064012997 -3.8930321
-1.544772 -0.062981002 -3.830241
-1.576044 -0.064012997 -3.8930321
-1.581993 -0.064012997 -3.8930321
-1.574034 -0.062981002 -3.830241
-1.579887 -0.062981002 -3.830241
-1.611735 -0.064012997 -3.8930321
-1.67252 -0.066183001 -4.0249991
-1.768599 -0.069729 -4.240624
-1.840822 -0.072310999 -4.3976841
-1.847542 -0.072310999 -4.3976841
-1.925579 -0.075093001 -4.5668259
-1.932557 -0.075093001 -4.5668259
-1.9775651 -0.076564997 -4.6563711
-1.9846801 -0.076564997 -4.6563711
-1.9917949 -0.076564997 -4.6563711
-1.998909 -0.076564997 -4.6563711
-2.0060239 -0.076564997 -4.6563711
-2.0534019 -0.078096002 -4.7494988
-2.0606589 -0.078096002 -4.7494988
-2.0679159 -0.078096002 -4.7494988
-2.034483 -0.076564997 -4.6563711
-1.9645571 -0.073675998 -4.480659
-1.971403 -0.073675998 -4.480659
-1.9063129 -0.070997 -4.3177261
-1.91291 -0.070997 -4.3177261
-1.919508 -0.070997 -4.3177261
-2.0372269 -0.075093001 -4.5668259
-2.044205 -0.075093001 -4.5668259
-2.0914021 -0.076564997 -4.6563711
-2.0985169 -0.076564997 -4.6563711
-2.134918 -0.075093001 -4.5668259
-0.46407801 -0.01627 -0.98947901
-0.46558899 -0.01627 -0.98947901
-0.46710101 -0.01627 -0.98947901
-0.468613 -0.01627 -0.98947901
-0.47012499 -0.01627 -0.98947901
-0.47163701 -0.01627 -0.98947901
-0.473149 -0.01627 -0.98947901
-2.190742 -0.075093001 -4.5668259
-2.240813 -0.076564997 -4.6563711
-2.292886 -0.078096002 -4.7494988
-2.300143 -0.078096002 -4.7494988
-2.35449 -0.079690002 -4.846427
-2.3618951 -0.079690002 -4.846427
-2.3692999 -0.079690002 -4.846427
-2.3291709 -0.078096002 -4.7494988
-2.3364291 -0.078096002 -4.7494988
-2.3436861 -0.078096002 -4.7494988
-2.3509431 -0.078096002 -4.7494988
-2.3582001 -0.078096002 -4.7494988
-2.3654571 -0.078096002 -4.7494988
-2.4211371 -0.079690002 -4.846427
-2.4285419 -0.079690002 -4.846427
-2.4359469 -0.079690002 -4.846427
-2.494256 -0.081349999 -4.9473939
-2.450758 -0.079690002 -4.846427
-2.5093751 -0.081349999 -4.9473939
-0.53816003 -0.01627 -0.98947901
-0.53967202 -0.01627 -0.98947901
-0.54118401 -0.01627 -0.98947901
-0.542696 -0.01627 -0.98947901
-0.54420799 -0.01627 -0.98947901
-0.54571998 -0.01627 -0.98947901
-0.54723197 -0.01627 -0.98947901
-0.54874402 -0.01627 -0.98947901
-0.55025601 -0.01627 -0.98947901
-0.55176699 -0.01627 -0.98947901
-0.55327898 -0.01627 -0.98947901
-0.55479097 -0.01627 -0.98947901
-0.55630302 -0.01627 -0.98947901
-0.55781502 -0.01627 -0.98947901
-0.55932701 -0.01627 -0.98947901
-0.560839 -0.01627 -0.98947901
-0.56235099 -0.01627 -0.98947901
-0.56386298 -0.01627 -0.98947901
-0.568398 -0.01627 -0.98947901
-0.56990999 -0.01627 -0.98947901
-0.57142198 -0.01627 -0.98947901
-0.57293397 -0.01627 -0.98947901
-2.3945451 -0.065080002 -3.957916
-2.400593 -0.065080002 -3.957916
-2.329006 -0.062981002 -3.830241
-2.3348589 -0.062981002 -3.830241
-2.3407121 -0.062981002 -3.830241
-2.3465641 -0.062981002 -3.830241
-2.352417 -0.062981002 -3.830241
-2.358269 -0.062981002 -3.830241
-2.338115 -0.061981 -3.769444
-2.307251 -0.061012998 -3.710546
-2.312921 -0.061012998 -3.710546
-2.3185911 -0.061012998 -3.710546
-2.32426 -0.061012998 -3.710546
-2.352608 -0.061012998 -3.710546
-2.358278 -0.061012998 -3.710546
-2.3639481 -0.061012998 -3.710546
-2.369617 -0.061012998 -3.710546
-2.3809559 -0.061012998 -3.710546
-0.803101 -0.020338001 -1.236849
-9.7052536 -0.24405099 -14.842183
-0.81066102 -0.020338001 -1.236849
-9.7506104 -0.24405099 -14.842183
-10.424841 -0.26032099 -15.831662
-9.7959671 -0.24405099 -14.842183
-10.473222 -0.26032099 -15.831662
-9.8413239 -0.24405099 -14.842183
-9.909359 -0.24405099 -14.842183
-9.9320374 -0.24405099 -14.842183
-9.9547157 -0.24405099 -14.842183
-9.9773941 -0.24405099 -14.842183
-10.000072 -0.24405099 -14.842183
-0.78346997 -0.018864 -1.147222
-0.78522301 -0.018864 -1.147222
-0.81184399 -0.019331001 -1.175619
-0.80963302 -0.019236 -1.169827
-0.80350399 -0.019048 -1.158414
-0.80922103 -0.019141 -1.164093
-0.80704403 -0.019048 -1.158414
-0.80881399 -0.019048 -1.158414
-0.81058401 -0.019048 -1.158414
-0.82441902 -0.019331001 -1.175619
-0.82214499 -0.019236 -1.169827
-0.81589401 -0.019048 -1.158414
-0.81369501 -0.018955 -1.152791
-0.81943399 -0.019048 -1.158414
-0.82120401 -0.019048 -1.158414
-0.82700801 -0.019141 -1.164093
-0.82878703 -0.019141 -1.164093
-0.83056599 -0.019141 -1.164093
-0.82828403 -0.019048 -1.158414
-0.83005399 -0.019048 -1.158414
-0.82778603 -0.018955 -1.152791
-0.83359402 -0.019048 -1.158414
-0.839459 -0.019141 -1.164093
-0.84123802 -0.019141 -1.164093
-0.84301698 -0.019141 -1.164093
-0.84067398 -0.019048 -1.158414
-0.838355 -0.018955 -1.152791
-0.84011602 -0.018955 -1.152791
-0.841878 -0.018955 -1.152791
-0.84363902 -0.018955 -1.152791
-0.84131598 -0.018864 -1.147222
-0.84716201 -0.018955 -1.152791
-0.84482199 -0.018864 -1.147222
-0.84657502 -0.018864 -1.147222
-0.84832799 -0.018864 -1.147222
-0.85420799 -0.018955 -1.152791
-0.86861902 -0.019236 -1.169827
-0.87471497 -0.019331001 -1.175619
-0.87651199 -0.019331001 -1.175619
-0.85709298 -0.018864 -1.147222
-0.85471702 -0.018773001 -1.141706
-0.85646099 -0.018773001 -1.141706
-0.85820597 -0.018773001 -1.141706
-0.86829901 -0.018955 -1.152791
-0.86169499 -0.018773001 -1.141706
-0.86343902 -0.018773001 -1.141706
-0.86518401 -0.018773001 -1.141706
-0.86692798 -0.018773001 -1.141706
-0.86867303 -0.018773001 -1.141706
-0.870417 -0.018773001 -1.141706
-0.87216198 -0.018773001 -1.141706
-0.87390602 -0.018773001 -1.141706
-0.875651 -0.018773001 -1.141706
-0.87739497 -0.018773001 -1.141706
-0.87914002 -0.018773001 -1.141706
-0.88088399 -0.018773001 -1.141706
-0.88262898 -0.018773001 -1.141706
-0.88437301 -0.018773001 -1.141706
-0.88611799 -0.018773001 -1.141706
-0.88786203 -0.018773001 -1.141706
-0.88960701 -0.018773001 -1.141706
-0.89135098 -0.018773001 -1.141706
-0.89309502 -0.018773001 -1.141706
-0.89484 -0.018773001 -1.141706
-0.89658499 -0.018773001 -1.141706
-0.89832902 -0.018773001 -1.141706
-0.90007299 -0.018773001 -1.141706
-0.90181798 -0.018773001 -1.141706
-0.90356201 -0.018773001 -1.141706
-0.90530699 -0.018773001 -1.141706
-0.90705103 -0.018773001 -1.141706
-0.90879601 -0.018773001 -1.141706
-0.91053998 -0.018773001 -1.141706
-0.91228497 -0.018773001 -1.141706
-0.914029 -0.018773001 -1.141706
-0.91577399 -0.018773001 -1.141706
-0.91751802 -0.018773001 -1.141706
-0.91926301 -0.018773001 -1.141706
-0.92100698 -0.018773001 -1.141706
-0.92275202 -0.018773001 -1.141706
-0.924496 -0.018773001 -1.141706
-13.864966 -0.278916 -16.962496
-13.890884 -0.278916 -16.962496
-15.04315 -0.30037099 -18.267303
-13.994557 -0.278916 -16.962496
-15.098973 -0.30037099 -18.267303
-14.046393 -0.278916 -16.962496
-15.154798 -0.30037099 -18.267303
-15.18271 -0.30037099 -18.267303
-15.210621 -0.30037099 -18.267303
-14.150066 -0.278916 -16.962496
-14.175984 -0.278916 -16.962496
-13.25511 -0.26032099 -15.831662
-13.2793 -0.26032099 -15.831662
-12.472022 -0.24405099 -14.842183
-13.327681 -0.26032099 -15.831662
-12.517379 -0.24405099 -14.842183
-12.540057 -0.24405099 -14.842183
-12.562736 -0.24405099 -14.842183
-12.585414 -0.24405099 -14.842183
-12.608092 -0.24405099 -14.842183
-12.630771 -0.24405099 -14.842183
-12.653449 -0.24405099 -14.842183
-0.99907899 -0.018864 -1.147222
-1.000832 -0.018864 -1.147222
-0.997765 -0.018773001 -1.141706
-0.99950999 -0.018773001 -1.141706
-1.001254 -0.018773001 -1.141706
-1.0029989 -0.018773001 -1.141706
-1.004743 -0.018773001 -1.141706
-1.006488 -0.018773001 -1.141706
-1.008232 -0.018773001 -1.141706
-1.009977 -0.018773001 -1.141706
-1.011721 -0.018773001 -1.141706
-1.013466 -0.018773001 -1.141706
-1.01521 -0.018773001 -1.141706
-1.016955 -0.018773001 -1.141706
-1.018699 -0.018773001 -1.141706
-1.025373 -0.018864 -1.147222
-1.0221879 -0.018773001 -1.141706
-1.028879 -0.018864 -1.147222
-1.025677 -0.018773001 -1.141706
-1.032385 -0.018864 -1.147222
-1.034138 -0.018864 -1.147222
-1.0409189 -0.018955 -1.152791
-1.037644 -0.018864 -1.147222
-1.039397 -0.018864 -1.147222
-1.051307 -0.019048 -1.158414
-15.420059 -0.278916 -16.962496
-14.537197 -0.26032099 -15.831662
-13.6513 -0.24405099 -14.842183
-14.585577 -0.26032099 -15.831662
-13.696657 -0.24405099 -14.842183
-14.633958 -0.26032099 -15.831662
-13.742014 -0.24405099 -14.842183
-14.682339 -0.26032099 -15.831662
-13.787371 -0.24405099 -14.842183
-14.73072 -0.26032099 -15.831662
-14.75491 -0.26032099 -15.831662
-14.7791 -0.26032099 -15.831662
-14.80329 -0.26032099 -15.831662
-14.82748 -0.26032099 -15.831662
-14.851671 -0.26032099 -15.831662
-15.938423 -0.278916 -16.962496
-15.964341 -0.278916 -16.962496
-17.22028 -0.30037099 -18.267303
-16.016178 -0.278916 -16.962496
-17.276104 -0.30037099 -18.267303
-18.746016 -0.32540199 -19.789577
-22.531506 -0.39048201 -23.747494
-1.233238 -0.020231999 -1.23044
-1.228752 -0.020128001 -1.224098
-1.224311 -0.020025 -1.21782
-1.219916 -0.019923 -1.211607
-1.2217669 -0.019923 -1.211607
-1.223619 -0.019923 -1.211607
-16.012806 -0.26032099 -15.831662
-17.182497 -0.278916 -16.962496
-15.057364 -0.24405099 -14.842183
-16.085379 -0.26032099 -15.831662
-18.587963 -0.30037099 -18.267303
-1.178311 -0.018955 -1.152791
-1.174372 -0.018864 -1.147222
-1.176125 -0.018864 -1.147222
-27.373404 -0.433869 -26.386105
-24.67235 -0.39048201 -23.747494
-27.454039 -0.433869 -26.386105
-0.89551902 -0.066682003 -3.710546
-0.90118903 -0.066682003 -3.710546
-0.90685803 -0.066682003 -3.710546
-0.91252798 -0.066682003 -3.710546
-0.91819799 -0.066682003 -3.710546
-0.92386699 -0.066682003 -3.710546
-0.929537 -0.066682003 -3.710546
-0.935206 -0.066682003 -3.710546
-0.94087601 -0.066682003 -3.710546
-0.94654602 -0.066682003 -3.710546
-0.95221502 -0.066682003 -3.710546
-0.95788503 -0.066682003 -3.710546
-0.96355402 -0.066682003 -3.710546
-0.96922398 -0.066682003 -3.710546
-1.112862 -0.072333001 -4.0249991
-1.1003619 -0.071128003 -3.957916
-1.088272 -0.069962002 -3.8930321
-1.150818 -0.073581003 -4.0943961
-1.118505 -0.071128003 -3.957916
-1.124553 -0.071128003 -3.957916
-1.1306 -0.071128003 -3.957916
-1.23998 -0.077593997 -4.3177261
-1.269662 -0.079030998 -4.3976841
-1.266369 -0.077593997 -4.3177261
-1.272966 -0.077593997 -4.3177261
-1.367341 -0.082070999 -4.5668259
-1.323418 -0.079030998 -4.3976841
-1.238404 -0.073581003 -4.0943961
-1.203171 -0.071128003 -3.957916
-1.189396 -0.069962002 -3.8930321
-1.195344 -0.069962002 -3.8930321
-1.201293 -0.069962002 -3.8930321
-1.227362 -0.071128003 -3.957916
-1.233409 -0.071128003 -3.957916
-1.260465 -0.072333001 -4.0249991
-1.288453 -0.073581003 -4.0943961
-1.472414 -0.083679996 -4.6563711
-1.509119 -0.085354 -4.7494988
-1.4580539 -0.082070999 -4.5668259
-1.493758 -0.083679996 -4.6563711
-1.500873 -0.083679996 -4.6563711
-1.507988 -0.083679996 -4.6563711
-1.515103 -0.083679996 -4.6563711
-1.464775 -0.080522001 -4.480659
-1.471622 -0.080522001 -4.480659
-1.5069 -0.082070999 -4.5668259
-1.457809 -0.079030998 -4.3976841
-1.363526 -0.073581003 -4.0943961
-1.369782 -0.073581003 -4.0943961
-1.40018 -0.074872002 -4.1662269
-1.406545 -0.074872002 -4.1662269
-1.342266 -0.071128003 -3.957916
-1.284108 -0.067740999 -3.769444
-1.289868 -0.067740999 -3.769444
-1.295627 -0.067740999 -3.769444
-1.281052 -0.066682003 -3.710546
-1.2867219 -0.066682003 -3.710546
-1.292392 -0.066682003 -3.710546
-1.318666 -0.067740999 -3.769444
-1.303731 -0.066682003 -3.710546
-1.309401 -0.066682003 -3.710546
-1.31507 -0.066682003 -3.710546
-1.32074 -0.066682003 -3.710546
-1.326409 -0.066682003 -3.710546
-1.3320791 -0.066682003 -3.710546
-1.337749 -0.066682003 -3.710546
-1.343418 -0.066682003 -3.710546
-1.349088 -0.066682003 -3.710546
-1.354757 -0.066682003 -3.710546
-1.360427 -0.066682003 -3.710546
-1.387781 -0.067740999 -3.769444
-1.39354 -0.067740999 -3.769444
-1.377436 -0.066682003 -3.710546
-1.383105 -0.066682003 -3.710546
-1.4108191 -0.067740999 -3.769444
-1.416579 -0.067740999 -3.769444
-1.422338 -0.067740999 -3.769444
-1.4511321 -0.068833001 -3.830241
-1.456984 -0.068833001 -3.830241
-1.462837 -0.068833001 -3.830241
-1.468689 -0.068833001 -3.830241
-1.498715 -0.069962002 -3.8930321
-1.504663 -0.069962002 -3.8930321
-1.5106111 -0.069962002 -3.8930321
-1.51656 -0.069962002 -3.8930321
-1.547884 -0.071128003 -3.957916
-1.553931 -0.071128003 -3.957916
-1.558199 -0.069962002 -3.8930321
-1.538919 -0.068833001 -3.830241
-1.544772 -0.068833001 -3.830241
-1.550624 -0.068833001 -3.830241
-1.581993 -0.069962002 -3.8930321
-1.599838 -0.069962002 -3.8930321
-1.605786 -0.069962002 -3.8930321
-1.611735 -0.069962002 -3.8930321
-1.644645 -0.071128003 -3.957916
-1.707613 -0.073581003 -4.0943961
-1.840822 -0.079030998 -4.3976841
-1.882401 -0.080522001 -4.480659
