# .PCD v0.7 - Point Cloud Data file format
VERSION 0.7
FIELDS x y z
SIZE 4 4 4
TYPE F F F
COUNT 1 1 1
WIDTH 1493
HEIGHT 1
VIEWPOINT 0 0 0 1 0 0 0
POINTS 1493
DATA ascii
-8.4890203 -3.511034 -23.747494
-9.4725618 -3.901149 -26.386105
-7.3765621 -2.9258621 -19.789579
-6.3486862 -2.5078821 -16.962496
-7.4370379 -2.9258621 -19.789579
-10.037003 -3.901149 -26.386105
-6.4782772 -2.5078821 -16.962496
-5.3563962 -2.0653141 -13.969114
-5.3777399 -2.0653141 -13.969114
-5.399085 -2.0653141 -13.969114
-7.4790211 -2.7007959 -18.267303
-2.208987 -0.78022999 -5.2772212
-1.995345 -0.70220703 -4.7494988
-2.0860441 -0.73146498 -4.9473948
-1.735358 -0.585172 -3.957916
-1.005935 -0.31918499 -2.1588631
-0.99121201 -0.313485 -2.120312
-0.994452 -0.313485 -2.120312
-1.667783 -0.52403498 -3.5444019
-1.779434 -0.557307 -3.769444
-11.754714 -3.511034 -23.747494
-11.790999 -3.511034 -23.747494
-0.95518899 -0.27430001 -1.855273
-0.950598 -0.27217299 -1.840891
-0.93885499 -0.26801801 -1.812786
-0.94886798 -0.27008 -1.82673
-0.95165902 -0.27008 -1.82673
-0.96936399 -0.27430001 -1.855273
-0.80827302 -0.22221699 -1.503006
-0.80043697 -0.21944 -1.484218
-0.81286597 -0.22221699 -1.503006
-4.690558 -1.2539411 -8.4812479
-4.703517 -1.2539411 -8.4812479
-4.716476 -1.2539411 -8.4812479
-4.3770928 -1.132592 -7.6604819
-3.779243 -0.97528702 -6.5965261
-8.5940104 -2.194396 -14.842184
-8.6166887 -2.194396 -14.842184
-6.9114938 -1.755517 -11.873747
-9.2637053 -2.3406899 -15.831663
-9.3120861 -2.3406899 -15.831663
-5.2002592 -1.300383 -8.7953682
-15.762047 -3.901149 -26.386105
-14.222128 -3.511034 -23.747494
-12.962193 -3.191849 -21.588631
-15.882998 -3.901149 -26.386105
-11.135482 -2.7007959 -18.267303
-9.0702572 -2.194396 -14.842184
-8.5580568 -2.0653141 -13.969114
-8.1027679 -1.950575 -13.193052
-6.9625092 -1.671921 -11.308331
-6.372849 -1.5265369 -10.324998
-5.0668411 -1.210701 -8.1887913
-4.6031642 -1.097198 -7.421092
-4.2189741 -1.003153 -6.7849979
-4.6258421 -1.097198 -7.421092
-5.7073002 -1.3503979 -9.1336517
-6.7614851 -1.595925 -10.794315
-6.7779779 -1.595925 -10.794315
-7.1180182 -1.671921 -11.308331
-15.056694 -3.511034 -23.747494
-9.4331121 -2.194396 -14.842184
-6.5779409 -1.5265369 -10.324998
-5.2294998 -1.210701 -8.1887913
-5.0672779 -1.1703449 -7.915832
-6.0952492 -1.4044141 -9.4989977
-7.2735271 -1.671921 -11.308331
-7.2908058 -1.671921 -11.308331
-7.308084 -1.671921 -11.308331
-1.924683 -0.428175 -2.8960359
-1.8393821 -0.40825999 -2.761337
-1.8874969 -0.41797999 -2.8270831
-1.961884 -0.43346101 -2.9317889
-0.83090198 -0.18191899 -1.23044
-0.83278197 -0.18191899 -1.23044
-0.93115401 -0.20295 -1.3726881
-0.91216201 -0.198364 -1.341666
-0.919406 -0.19949099 -1.3492889
-0.892169 -0.19186001 -1.297677
-0.89415097 -0.19186001 -1.297677
-0.74668902 -0.156743 -1.060156
-0.698421 -0.146293 -0.98947901
-0.69993299 -0.146293 -0.98947901
-0.70144498 -0.146293 -0.98947901
-0.75316799 -0.156743 -1.060156
-0.76851201 -0.159592 -1.079432
-0.77016097 -0.159592 -1.079432
-0.77181 -0.159592 -1.079432
-0.84238201 -0.173814 -1.175619
-1.129298 -0.232519 -1.572682
-0.829548 -0.170439 -1.152791
-0.81547499 -0.167192 -1.130833
-0.78721303 -0.161057 -1.089335
-0.78887802 -0.161057 -1.089335
-2.154228 -0.43887901 -2.968437
-2.1587639 -0.43887901 -2.968437
-0.80494899 -0.163304 -1.104535
-0.78473699 -0.15887 -1.0745471
-0.78637898 -0.15887 -1.0745471
-0.82147402 -0.16561501 -1.120165
-0.83102602 -0.167192 -1.130833
-0.84076101 -0.1688 -1.141706
-0.84139299 -0.167192 -1.130833
-0.82351297 -0.163304 -1.104535
-0.82520097 -0.163304 -1.104535
-0.82305998 -0.16254801 -1.099421
-0.82473999 -0.16254801 -1.099421
-0.80408502 -0.15815499 -1.069707
-0.79852498 -0.156743 -1.060156
-0.80014497 -0.156743 -1.060156
-0.80176502 -0.156743 -1.060156
-0.79627502 -0.15535501 -1.050774
-0.80500501 -0.156743 -1.060156
-0.81349599 -0.157445 -1.0649101
-0.81148398 -0.156743 -1.060156
-0.81310397 -0.156743 -1.060156
-0.81472403 -0.156743 -1.060156
-0.81634402 -0.156743 -1.060156
-0.81796402 -0.156743 -1.060156
-0.81594098 -0.156046 -1.055444
-0.813936 -0.15535501 -1.050774
-0.81554198 -0.15535501 -1.050774
-0.82444298 -0.156743 -1.060156
-0.82239199 -0.156046 -1.055444
-0.82035798 -0.15535501 -1.050774
-0.82196403 -0.15535501 -1.050774
-0.819942 -0.154671 -1.046145
-0.82154 -0.154671 -1.046145
-0.823138 -0.154671 -1.046145
-0.82112002 -0.153993 -1.041557
-0.815557 -0.15265401 -1.0325
-0.81359702 -0.15199301 -1.02803
-0.83690602 -0.156046 -1.055444
-0.84985 -0.15815499 -1.069707
-0.851484 -0.15815499 -1.069707
-0.85311902 -0.15815499 -1.069707
-0.85475302 -0.15815499 -1.069707
-0.852548 -0.157445 -1.0649101
-0.850362 -0.156743 -1.060156
-0.84444201 -0.15535501 -1.050774
-0.82773501 -0.15199301 -1.02803
-0.79820597 -0.146293 -0.98947901
-0.79971802 -0.146293 -0.98947901
-0.80123001 -0.146293 -0.98947901
-1.470673 -0.26801801 -1.812786
-1.496287 -0.27217299 -1.840891
-1.462198 -0.26398799 -1.785526
-1.39168 -0.250788 -1.69625
-1.384384 -0.24901 -1.684219
-0.86531401 -0.15535501 -1.050774
-0.86691898 -0.15535501 -1.050774
-0.86852503 -0.15535501 -1.050774
-0.881836 -0.157445 -1.0649101
-1.0107189 -0.179134 -1.211607
-0.96811599 -0.17127 -1.158414
-0.94230598 -0.1664 -1.125474
-0.92646301 -0.163304 -1.104535
-0.96402103 -0.169615 -1.147222
-0.97046202 -0.170439 -1.152791
-0.97696602 -0.17127 -1.158414
-0.95543301 -0.167192 -1.130833
-0.94813102 -0.16561501 -1.120165
-0.936589 -0.163304 -1.104535
-0.92962903 -0.161799 -1.094355
-0.90624398 -0.157445 -1.0649101
-0.91608697 -0.15887 -1.0745471
-0.91772902 -0.15887 -1.0745471
-0.89903098 -0.15535501 -1.050774
-0.91275197 -0.157445 -1.0649101
-0.961824 -0.16561501 -1.120165
-0.96353501 -0.16561501 -1.120165
-0.98856199 -0.169615 -1.147222
-1.4040771 -0.240482 -1.626541
-1.406562 -0.240482 -1.626541
-1.33585 -0.227989 -1.542045
-1.32105 -0.22506601 -1.522275
-1.3066241 -0.22221699 -1.503006
-1.308921 -0.22221699 -1.503006
-1.311217 -0.22221699 -1.503006
-1.291292 -0.218077 -1.475
-1.269883 -0.21408699 -1.448018
-1.092271 -0.183824 -1.243324
-1.004743 -0.1688 -1.141706
-0.99690199 -0.167192 -1.130833
-0.99862999 -0.167192 -1.130833
-1.009977 -0.1688 -1.141706
-1.011721 -0.1688 -1.141706
-1.013466 -0.1688 -1.141706
-1.01521 -0.1688 -1.141706
-1.007269 -0.167192 -1.130833
-1.004215 -0.1664 -1.125474
-1.234025 -0.20412999 -1.380668
-1.214944 -0.20063099 -1.357
-1.081107 -0.178225 -1.205457
-1.082948 -0.178225 -1.205457
-1.200583 -0.197249 -1.334129
-1.202621 -0.197249 -1.334129
-1.19793 -0.19614699 -1.326676
-1.199957 -0.19614699 -1.326676
-1.415494 -0.23098899 -1.562335
-1.417881 -0.23098899 -1.562335
-1.324422 -0.21540099 -1.456901
-1.228657 -0.19949099 -1.3492889
-1.122314 -0.18191899 -1.23044
-1.124194 -0.18191899 -1.23044
-1.30923 -0.21150801 -1.430572
-1.360594 -0.21944 -1.484218
-1.254339 -0.20063099 -1.357
-0.916134 -0.146293 -0.98947901
-0.91764599 -0.146293 -0.98947901
-0.91915798 -0.146293 -0.98947901
-1.234418 -0.19614699 -1.326676
-1.345754 -0.21279 -1.439242
-1.316049 -0.207754 -1.405177
-1.3181961 -0.207754 -1.405177
-1.2678289 -0.19949099 -1.3492889
-1.269891 -0.19949099 -1.3492889
-0.198048 -0.298094 -1.9955879
-0.19144499 -0.283786 -1.8997999
-0.18979201 -0.277134 -1.855273
-0.19113401 -0.274986 -1.840891
-0.193947 -0.274986 -1.840891
-0.174243 -0.230345 -1.542045
-0.173225 -0.225944 -1.512579
-0.170118 -0.21897 -1.4658951
-0.163286 -0.20744599 -1.388742
-0.16444699 -0.20624 -1.380668
-0.15827499 -0.195985 -1.312016
-0.151097 -0.184756 -1.236849
-0.15219399 -0.183799 -1.23044
-0.154074 -0.183799 -1.23044
-0.156766 -0.184756 -1.236849
-0.16203199 -0.188687 -1.263165
-0.16396201 -0.188687 -1.263165
-0.167676 -0.190716 -1.276747
-0.169626 -0.190716 -1.276747
-0.17157701 -0.190716 -1.276747
-0.1726 -0.189696 -1.26992
-0.173612 -0.188687 -1.263165
-0.208873 -0.22451399 -1.503006
-0.20852999 -0.221707 -1.484218
-0.15057001 -0.158362 -1.060156
-0.151513 -0.15765899 -1.055444
-0.15111101 -0.15558399 -1.041557
-0.152036 -0.15490501 -1.037009
-0.154974 -0.15627 -1.046145
-0.15588599 -0.15558399 -1.041557
-0.15747701 -0.15558399 -1.041557
-0.159769 -0.15627 -1.046145
-0.170771 -0.159073 -1.0649101
-0.171628 -0.158362 -1.060156
-0.170959 -0.15627 -1.046145
-0.1718 -0.15558399 -1.041557
-0.17114 -0.15356401 -1.02803
-0.166234 -0.14780501 -0.98947901
-0.174282 -0.15356401 -1.02803
-0.17509399 -0.15290201 -1.023599
-0.17077 -0.14780501 -0.98947901
-0.172282 -0.14780501 -0.98947901
-0.173794 -0.14780501 -0.98947901
-0.17530601 -0.14780501 -0.98947901
-0.26195201 -0.21897 -1.4658951
-0.256282 -0.212414 -1.422006
-0.25845399 -0.212414 -1.422006
-0.260627 -0.212414 -1.422006
-0.569969 -0.460691 -3.08409
-0.57468098 -0.460691 -3.08409
-0.57939398 -0.460691 -3.08409
-0.27867001 -0.2163 -1.448018
-0.26322699 -0.202704 -1.357
-0.26530001 -0.202704 -1.357
-0.59228402 -0.44902799 -3.006012
-0.59687698 -0.44902799 -3.006012
-0.60146999 -0.44902799 -3.006012
-0.59848702 -0.44341499 -2.968437
-0.40401 -0.28839999 -1.930691
-0.40696001 -0.28839999 -1.930691
-0.41327 -0.290764 -1.946516
-0.22590999 -0.15558399 -1.041557
-0.21612699 -0.14780501 -0.98947901
-0.229093 -0.15558399 -1.041557
-0.23272599 -0.15696099 -1.050774
-0.23537301 -0.15765899 -1.055444
-0.23804399 -0.158362 -1.060156
-0.239664 -0.158362 -1.060156
-0.23914801 -0.15696099 -1.050774
-0.2376 -0.15490501 -1.037009
-0.237114 -0.15356401 -1.02803
-0.229734 -0.14780501 -0.98947901
-0.23124599 -0.14780501 -0.98947901
-0.232758 -0.14780501 -0.98947901
-0.24878199 -0.15696099 -1.050774
-0.25038701 -0.15696099 -1.050774
-0.251993 -0.15696099 -1.050774
-0.25248101 -0.15627 -1.046145
-0.256338 -0.15765899 -1.055444
-2.0313931 -1.18244 -7.915832
-1.6132801 -0.933505 -6.249341
-1.434128 -0.82495803 -5.5226731
-1.772295 -1.01352 -6.7849979
-1.7533031 -0.985367 -6.5965261
-1.47632 -0.82495803 -5.5226731
-1.418769 -0.788293 -5.2772212
-1.366116 -0.754749 -5.052659
-1.403703 -0.77115601 -5.162499
-1.475754 -0.80620903 -5.3971581
-1.737414 -0.933505 -6.249341
-1.746963 -0.933505 -6.249341
-1.451032 -0.77115601 -5.162499
-1.864175 -0.985367 -6.5965261
-1.823599 -0.95873499 -6.418242
-1.995177 -1.043329 -6.9845572
-0.89083499 -0.44902799 -3.006012
-0.87331897 -0.43794101 -2.9317889
-0.888771 -0.44341499 -2.968437
-0.88227898 -0.43794101 -2.9317889
-0.979056 -0.42738801 -2.8611441
-5.282959 -2.2170751 -14.842184
-5.3056369 -2.2170751 -14.842184
-7.750278 -3.2248361 -21.588631
-7.3765621 -2.9561 -19.789579
-4.9378672 -1.970733 -13.193052
-7.4370379 -2.9561 -19.789579
-10.07732 -3.9414661 -26.386105
-1.284863 -0.49268299 -3.2982631
-1.160913 -0.44341499 -2.968437
-1.165448 -0.44341499 -2.968437
-7.4790211 -2.728708 -18.267303
-2.0784841 -0.739025 -4.9473948
-2.0860441 -0.739025 -4.9473948
-2.1767499 -0.754749 -5.052659
-2.0953081 -0.723943 -4.846427
-1.981403 -0.68217701 -4.5668259
-1.813961 -0.62233698 -4.1662269
-1.729311 -0.59122002 -3.957916
-1.652722 -0.56306702 -3.769444
-1.658482 -0.56306702 -3.769444
-1.009234 -0.32248399 -2.1588631
-1.0125329 -0.32248399 -2.1588631
-1.667783 -0.52945101 -3.5444019
-2.2046981 -0.68217701 -4.5668259
-2.0910389 -0.64496702 -4.3177261
-2.060179 -0.63344997 -4.240624
-0.950598 -0.274986 -1.840891
-0.93885499 -0.27078801 -1.812786
-0.94886798 -0.27287099 -1.82673
-0.95165902 -0.27287099 -1.82673
-0.96936399 -0.277134 -1.855273
-0.88073802 -0.244643 -1.637758
-0.83162302 -0.230345 -1.542045
-4.3778539 -1.18244 -7.915832
-4.3770928 -1.144297 -7.6604819
-3.5803349 -0.933505 -6.249341
-3.589884 -0.933505 -6.249341
-15.721729 -3.9414661 -26.386105
-15.762047 -3.9414661 -26.386105
-11.851773 -2.9561 -19.789579
-15.842681 -3.9414661 -26.386105
-11.135482 -2.728708 -18.267303
-9.6749411 -2.3648801 -15.831663
-8.0826092 -1.970733 -13.193052
-8.1027679 -1.970733 -13.193052
-7.6954041 -1.86701 -12.498681
-6.9797869 -1.6892 -11.308331
-4.9100409 -1.18244 -7.915832
-4.6145029 -1.108537 -7.421092
-4.775063 -1.144297 -7.6604819
-4.786768 -1.144297 -7.6604819
-5.7212558 -1.364354 -9.1336517
-5.7352118 -1.364354 -9.1336517
-6.4990602 -1.542313 -10.324998
-5.549675 -1.313822 -8.7953682
-11.582072 -2.728708 -18.267303
-9.4331121 -2.2170751 -14.842184
-5.8189478 -1.364354 -9.1336517
-5.2294998 -1.223214 -8.1887913
-5.242013 -1.223214 -8.1887913
-9.5238256 -2.2170751 -14.842184
-8.4857817 -1.970733 -13.193052
-7.6553459 -1.7736599 -11.873747
-7.308084 -1.6892 -11.308331
-7.3253641 -1.6892 -11.308331
-8.1155519 -1.86701 -12.498681
-1.9728 -0.44341499 -2.968437
-1.883177 -0.42230001 -2.8270831
-1.8874969 -0.42230001 -2.8270831
-1.961884 -0.43794101 -2.9317889
-0.66667199 -0.14780501 -0.98947901
-0.66818303 -0.14780501 -0.98947901
-0.66969502 -0.14780501 -0.98947901
-0.67120701 -0.14780501 -0.98947901
-0.90197003 -0.198174 -1.326676
-0.91421199 -0.200414 -1.341666
-0.85601801 -0.184756 -1.236849
-0.68632603 -0.14780501 -0.98947901
-0.68783802 -0.14780501 -0.98947901
-0.75003701 -0.159073 -1.0649101
-0.698421 -0.14780501 -0.98947901
-0.69993299 -0.14780501 -0.98947901
-0.70144498 -0.14780501 -0.98947901
-0.74321401 -0.15627 -1.046145
-0.75143301 -0.15765899 -1.055444
-0.74641103 -0.15627 -1.046145
-0.735057 -0.15356401 -1.02803
-0.81416798 -0.169728 -1.1362441
-0.82778603 -0.17219999 -1.152791
-0.81764001 -0.169728 -1.1362441
-0.80778098 -0.167326 -1.120165
-0.78721303 -0.16272099 -1.089335
-0.78887802 -0.16272099 -1.089335
-0.79054201 -0.16272099 -1.089335
-0.80326098 -0.164992 -1.104535
-0.786654 -0.16124199 -1.079432
-0.77078599 -0.15765899 -1.055444
-0.77239799 -0.15765899 -1.055444
-0.77401102 -0.15765899 -1.055444
-0.82318598 -0.167326 -1.120165
-0.84139299 -0.16892 -1.130833
-0.82736099 -0.16576301 -1.109696
-0.82520097 -0.164992 -1.104535
-0.82305998 -0.16422801 -1.099421
-0.80245 -0.159789 -1.069707
-0.79690498 -0.158362 -1.060156
-0.79852498 -0.158362 -1.060156
-0.793064 -0.15696099 -1.050774
-0.79466999 -0.15696099 -1.050774
-0.78929001 -0.15558399 -1.041557
-0.79088199 -0.15558399 -1.041557
-0.795964 -0.15627 -1.046145
-0.81186903 -0.159073 -1.0649101
-0.806265 -0.15765899 -1.055444
-0.80787802 -0.15765899 -1.055444
-0.80949003 -0.15765899 -1.055444
-0.80751401 -0.15696099 -1.050774
-0.80912 -0.15696099 -1.050774
-0.81432801 -0.15765899 -1.055444
-0.81233102 -0.15696099 -1.050774
-0.81035101 -0.15627 -1.046145
-0.80838799 -0.15558399 -1.041557
-0.80997902 -0.15558399 -1.041557
-0.811571 -0.15558399 -1.041557
-0.81316203 -0.15558399 -1.041557
-0.81475401 -0.15558399 -1.041557
-0.81634498 -0.15558399 -1.041557
-0.81436503 -0.15490501 -1.037009
-0.81240201 -0.154231 -1.0325
-0.81045598 -0.15356401 -1.02803
-0.78157598 -0.14780501 -0.98947901
-0.78308702 -0.14780501 -0.98947901
-0.83690602 -0.15765899 -1.055444
-0.84226203 -0.158362 -1.060156
-0.84388202 -0.158362 -1.060156
-0.85311902 -0.159789 -1.069707
-0.85475302 -0.159789 -1.069707
-0.84874201 -0.158362 -1.060156
-0.846582 -0.15765899 -1.055444
-0.83703399 -0.15558399 -1.041557
-0.79669499 -0.14780501 -0.98947901
-0.79820597 -0.14780501 -0.98947901
-0.79971802 -0.14780501 -0.98947901
-1.424409 -0.26276401 -1.759074
-1.470673 -0.27078801 -1.812786
-1.429785 -0.26276401 -1.759074
-1.39125 -0.25520301 -1.7084531
-1.462198 -0.266716 -1.785526
-0.87466002 -0.158362 -1.060156
-0.87628001 -0.158362 -1.060156
-1.01257 -0.180986 -1.211607
-0.969886 -0.17304 -1.158414
-0.95764202 -0.170544 -1.141706
-0.96402103 -0.171368 -1.147222
-0.975196 -0.17304 -1.158414
-0.97696602 -0.17304 -1.158414
-0.97873598 -0.17304 -1.158414
-0.97574598 -0.17219999 -1.152791
-0.95888901 -0.16892 -1.130833
-0.96061701 -0.16892 -1.130833
-0.96694899 -0.169728 -1.1362441
-0.96868497 -0.169728 -1.1362441
-0.96122301 -0.168119 -1.125474
-0.96294302 -0.168119 -1.125474
-0.973894 -0.169728 -1.1362441
-0.98505598 -0.171368 -1.147222
-0.98680902 -0.171368 -1.147222
-0.993361 -0.17219999 -1.152791
-1.4040771 -0.24296699 -1.626541
-1.406562 -0.24296699 -1.626541
-1.33585 -0.230345 -1.542045
-1.383112 -0.238075 -1.593792
-1.349324 -0.231851 -1.552124
-1.283321 -0.21897 -1.4658951
-1.247071 -0.212414 -1.422006
-1.159021 -0.197073 -1.3193049
-1.066258 -0.180986 -1.211607
-1.0262229 -0.173888 -1.164093
-1.013103 -0.171368 -1.147222
-1.014856 -0.171368 -1.147222
-1.021544 -0.17219999 -1.152791
-1.0282969 -0.17304 -1.158414
-1.030067 -0.17304 -1.158414
-1.031837 -0.17304 -1.158414
-1.2764421 -0.21369401 -1.430572
-1.294221 -0.2163 -1.448018
-1.250677 -0.208666 -1.396911
-1.2454849 -0.20744599 -1.388742
-1.212164 -0.201552 -1.3492889
-1.207366 -0.200414 -1.341666
-1.209416 -0.200414 -1.341666
-1.211466 -0.200414 -1.341666
-1.494133 -0.246342 -1.649132
-1.456203 -0.239684 -1.60456
-1.324422 -0.217627 -1.456901
-1.228657 -0.201552 -1.3492889
-1.164551 -0.190716 -1.276747
-1.166502 -0.190716 -1.276747
-1.30923 -0.21369401 -1.430572
-1.360594 -0.221707 -1.484218
-1.362862 -0.221707 -1.484218
-1.235237 -0.199288 -1.334129
-1.237276 -0.199288 -1.334129
-1.232391 -0.198174 -1.326676
-1.234418 -0.198174 -1.326676
-1.250416 -0.200414 -1.341666
-1.281425 -0.205047 -1.3726881
-1.345754 -0.21498901 -1.439242
-1.339833 -0.21369401 -1.430572
-1.342018 -0.21369401 -1.430572
-1.2898149 -0.205047 -1.3726881
-1.269891 -0.201552 -1.3492889
-1.271952 -0.201552 -1.3492889
-0.191607 -0.29135001 -1.930691
-0.186958 -0.27996901 -1.855273
-0.18979201 -0.27996901 -1.855273
-0.192627 -0.27996901 -1.855273
-0.195462 -0.27996901 -1.855273
-0.171887 -0.232702 -1.542045
-0.170913 -0.228255 -1.512579
-0.173225 -0.228255 -1.512579
-0.167025 -0.217188 -1.439242
-0.16233701 -0.208349 -1.380668
-0.15627 -0.197989 -1.312016
-0.150777 -0.188611 -1.249868
-0.151097 -0.186646 -1.236849
-0.15219399 -0.185679 -1.23044
-0.154074 -0.185679 -1.23044
-0.155954 -0.185679 -1.23044
-0.158656 -0.186646 -1.236849
-0.163094 -0.18960901 -1.2564811
-0.165892 -0.190617 -1.263165
-0.169626 -0.19266701 -1.276747
-0.17157701 -0.19266701 -1.276747
-0.173528 -0.19266701 -1.276747
-0.173612 -0.190617 -1.263165
-0.147991 -0.16069999 -1.0649101
-0.14895 -0.159982 -1.060156
-0.14858 -0.157868 -1.046145
-0.148867 -0.156489 -1.037009
-0.150451 -0.156489 -1.037009
-0.152036 -0.156489 -1.037009
-0.154974 -0.157868 -1.046145
-0.15588599 -0.157176 -1.041557
-0.158171 -0.157868 -1.046145
-0.171628 -0.159982 -1.060156
-0.17020901 -0.157176 -1.041557
-0.169569 -0.15513401 -1.02803
-0.17114 -0.15513401 -1.02803
-0.166234 -0.149317 -0.98947901
-0.174282 -0.15513401 -1.02803
-0.175852 -0.15513401 -1.02803
-0.177423 -0.15513401 -1.02803
-0.172282 -0.149317 -0.98947901
-0.173794 -0.149317 -0.98947901
-0.17530601 -0.149317 -0.98947901
-0.189447 -0.159982 -1.060156
-0.196326 -0.164386 -1.089335
-0.205533 -0.17064799 -1.130833
-0.48360801 -0.39817801 -2.6386099
-0.54182202 -0.44242001 -2.9317889
-0.57468098 -0.46540299 -3.08409
-0.204026 -0.159982 -1.060156
-0.203826 -0.158567 -1.050774
-0.59687698 -0.453621 -3.006012
-0.593952 -0.44795099 -2.968437
-0.59848702 -0.44795099 -2.968437
-0.40732199 -0.29373801 -1.946516
-0.41368699 -0.296166 -1.962603
-0.41327 -0.29373801 -1.946516
-0.41624501 -0.29373801 -1.946516
-0.22731 -0.159271 -1.055444
-0.22590999 -0.157176 -1.041557
-0.21612699 -0.149317 -0.98947901
-0.229093 -0.157176 -1.041557
-0.23272599 -0.158567 -1.050774
-0.23537301 -0.159271 -1.055444
-0.235937 -0.158567 -1.050774
-0.237543 -0.158567 -1.050774
-0.237051 -0.157176 -1.041557
-0.23864201 -0.157176 -1.041557
-0.23918401 -0.156489 -1.037009
-0.239722 -0.155809 -1.0325
-0.240255 -0.15513401 -1.02803
-0.232758 -0.149317 -0.98947901
-0.23426899 -0.149317 -0.98947901
-0.25038701 -0.158567 -1.050774
-0.251993 -0.158567 -1.050774
-0.250276 -0.156489 -1.037009
-0.25186101 -0.156489 -1.037009
-3.58481 -2.1080029 -13.969114
-2.043488 -1.194535 -7.915832
-2.055583 -1.194535 -7.915832
-1.856438 -1.054002 -6.9845572
-1.51147 -0.853239 -5.6541648
-1.484758 -0.83339697 -5.5226731
-1.493197 -0.83339697 -5.5226731
-1.699219 -0.94305402 -6.249341
-1.967672 -1.085941 -7.1962099
-2.000659 -1.085941 -7.1962099
-1.746963 -0.94305402 -6.249341
-1.420159 -0.76246899 -5.052659
-1.973833 -1.054002 -6.9845572
-1.9845051 -1.054002 -6.9845572
-0.87970001 -0.44795099 -2.968437
-0.87331897 -0.44242001 -2.9317889
-0.87779897 -0.44242001 -2.9317889
-6.983469 -2.9863379 -19.789579
-4.9508519 -2.1080029 -13.969114
-4.0251122 -1.706479 -11.308331
-4.0423899 -1.706479 -11.308331
-5.3283162 -2.239753 -14.842184
-7.7832651 -3.257823 -21.588631
-7.8162508 -3.257823 -21.588631
-9.5935125 -3.9817841 -26.386105
-1.540229 -0.628703 -4.1662269
-1.7991 -0.73134798 -4.846427
-4.4259372 -1.791803 -11.873747
-4.2324572 -1.706479 -11.308331
-4.2497358 -1.706479 -11.308331
-1.269744 -0.49772301 -3.2982631
-1.311206 -0.511944 -3.392499
-1.279824 -0.49772301 -3.2982631
-1.128173 -0.43702501 -2.8960359
-1.132598 -0.43702501 -2.8960359
-1.165448 -0.44795099 -2.968437
-2.8596261 -1.054002 -6.9845572
-5.7405949 -2.1080029 -13.969114
-2.0784841 -0.746584 -4.9473948
-3.4527619 -1.235726 -8.1887913
-2.169029 -0.76246899 -5.052659
-2.1314011 -0.746584 -4.9473948
-2.0534019 -0.716721 -4.7494988
-1.807595 -0.628703 -4.1662269
-1.752471 -0.607391 -4.0249991
-1.729311 -0.59726799 -3.957916
-1.679379 -0.57800102 -3.830241
-1.685232 -0.57800102 -3.830241
-11.770642 -3.9817841 -26.386105
-11.891594 -3.9817841 -26.386105
-7.1591468 -2.38907 -15.831663
-8.2884665 -2.756619 -18.267303
-2.190742 -0.68915498 -4.5668259
-2.1977201 -0.68915498 -4.5668259
-2.2046981 -0.68915498 -4.5668259
-2.053699 -0.63993001 -4.240624
-1.989138 -0.617863 -4.0943961
-1.928881 -0.59726799 -3.957916
-0.96369398 -0.27996901 -1.855273
-0.95165902 -0.275662 -1.82673
-0.96936399 -0.27996901 -1.855273
-0.99413902 -0.28217399 -1.869881
-0.98920703 -0.27996901 -1.855273
-0.99204201 -0.27996901 -1.855273
-0.97209299 -0.27355799 -1.812786
-0.94597799 -0.265452 -1.759074
-2.609421 -0.68915498 -4.5668259
-2.1943991 -0.57800102 -3.830241
-2.2002521 -0.57800102 -3.830241
-11.700583 -2.9863379 -19.789579
-12.797259 -3.257823 -21.588631
-15.802364 -3.9817841 -26.386105
-13.160114 -3.257823 -21.588631
-11.163393 -2.756619 -18.267303
-9.699131 -2.38907 -15.831663
-9.7233219 -2.38907 -15.831663
-6.4201779 -1.558089 -10.324998
-4.9342322 -1.194535 -7.915832
-4.9463272 -1.194535 -7.915832
-5.3125949 -1.2798589 -8.4812479
-5.3255539 -1.2798589 -8.4812479
-5.3385129 -1.2798589 -8.4812479
-5.3514719 -1.2798589 -8.4812479
-11.609984 -2.756619 -18.267303
-8.8995676 -2.1080029 -13.969114
-7.5827751 -1.791803 -11.873747
-9.5011473 -2.239753 -14.842184
-9.5238256 -2.239753 -14.842184
-9.546504 -2.239753 -14.842184
-7.2908058 -1.706479 -11.308331
-7.308084 -1.706479 -11.308331
-7.3253641 -1.706479 -11.308331
-8.1155519 -1.886108 -12.498681
-1.797578 -0.40722799 -2.6985791
-1.8874969 -0.42662001 -2.8270831
-1.891817 -0.42662001 -2.8270831
-1.896136 -0.42662001 -2.8270831
-0.66516 -0.149317 -0.98947901
-0.66667199 -0.149317 -0.98947901
-0.66818303 -0.149317 -0.98947901
-0.66969502 -0.149317 -0.98947901
-0.67120701 -0.149317 -0.98947901
-0.672719 -0.149317 -0.98947901
-0.91421199 -0.202464 -1.341666
-0.91626197 -0.202464 -1.341666
-0.67725497 -0.149317 -0.98947901
-0.68481398 -0.149317 -0.98947901
-0.68632603 -0.149317 -0.98947901
-0.68783802 -0.149317 -0.98947901
-0.68935001 -0.149317 -0.98947901
-0.690862 -0.149317 -0.98947901
-0.74668902 -0.159982 -1.060156
-0.698421 -0.149317 -0.98947901
-0.69993299 -0.149317 -0.98947901
-0.70144498 -0.149317 -0.98947901
-0.70295697 -0.149317 -0.98947901
-0.73830801 -0.156489 -1.037009
-0.70598102 -0.149317 -0.98947901
-0.70749301 -0.149317 -0.98947901
-0.81416798 -0.171464 -1.1362441
-0.82778603 -0.173961 -1.152791
-0.80607003 -0.169038 -1.120165
-0.80398899 -0.168244 -1.114906
-0.79450202 -0.16590799 -1.099421
-0.78887802 -0.164386 -1.089335
-0.786933 -0.163635 -1.08436
-0.788589 -0.163635 -1.08436
-0.783095 -0.162154 -1.0745471
-0.76737499 -0.158567 -1.050774
-0.76559299 -0.157868 -1.046145
-0.77058601 -0.158567 -1.050774
-0.84139299 -0.17064799 -1.130833
-0.82736099 -0.167458 -1.109696
-0.82138097 -0.16590799 -1.099421
-0.79722399 -0.16069999 -1.0649101
-0.79528499 -0.159982 -1.060156
-0.79336298 -0.159271 -1.055444
-0.78797197 -0.157868 -1.046145
-0.78267503 -0.156489 -1.037009
-0.77746898 -0.15513401 -1.02803
-0.74982601 -0.149317 -0.98947901
-0.75133801 -0.149317 -0.98947901
-0.75285 -0.149317 -0.98947901
-0.75436097 -0.149317 -0.98947901
-0.75587302 -0.149317 -0.98947901
-0.75738502 -0.149317 -0.98947901
-0.79883897 -0.157176 -1.041557
-0.80395699 -0.157868 -1.046145
-0.80555499 -0.157868 -1.046145
-0.807154 -0.157868 -1.046145
-0.808752 -0.157868 -1.046145
-0.76645702 -0.149317 -0.98947901
-0.76796901 -0.149317 -0.98947901
-0.76947999 -0.149317 -0.98947901
-0.79757798 -0.154466 -1.023599
-0.799142 -0.154466 -1.023599
-0.80766898 -0.155809 -1.0325
-0.80924702 -0.155809 -1.0325
-0.77704 -0.149317 -0.98947901
-0.778552 -0.149317 -0.98947901
-0.78006399 -0.149317 -0.98947901
-0.78157598 -0.149317 -0.98947901
-0.78308702 -0.149317 -0.98947901
-0.83690602 -0.159271 -1.055444
-0.84226203 -0.159982 -1.060156
-0.84388202 -0.159982 -1.060156
-1.494136 -0.28217399 -1.869881
-0.84496897 -0.159271 -1.055444
-0.83912301 -0.157868 -1.046145
-0.82975602 -0.155809 -1.0325
-0.79669499 -0.149317 -0.98947901
-0.79820597 -0.149317 -0.98947901
-0.79971802 -0.149317 -0.98947901
-1.383419 -0.25781301 -1.7084531
-1.38603 -0.25781301 -1.7084531
-1.378721 -0.255972 -1.69625
-1.342943 -0.248861 -1.649132
-1.345463 -0.248861 -1.649132
-0.80879003 -0.149317 -0.98947901
-1.389088 -0.255972 -1.69625
-0.878582 -0.16069999 -1.0649101
-0.88020903 -0.16069999 -1.0649101
-1.0144221 -0.18283699 -1.211607
-0.995947 -0.17918 -1.1873749
-0.99279797 -0.178289 -1.1814671
-0.98480397 -0.176532 -1.169827
-0.98659098 -0.176532 -1.169827
-0.988379 -0.176532 -1.169827
-0.96985298 -0.172289 -1.141706
-0.96694899 -0.171464 -1.1362441
-0.96868497 -0.171464 -1.1362441
-0.97042102 -0.171464 -1.1362441
-0.98154998 -0.17312101 -1.147222
-0.98330301 -0.17312101 -1.147222
-0.989838 -0.173961 -1.152791
-0.99159902 -0.173961 -1.152791
-0.993361 -0.173961 -1.152791
-1.423578 -0.248861 -1.649132
-1.426097 -0.248861 -1.649132
-1.409047 -0.245452 -1.626541
-1.392458 -0.242135 -1.60456
-1.385548 -0.24051 -1.593792
-1.397361 -0.242135 -1.60456
-1.275448 -0.219853 -1.456901
-1.210819 -0.208349 -1.380668
-1.178665 -0.202464 -1.341666
-1.1420031 -0.195825 -1.297677
-1.052007 -0.18008099 -1.193341
-1.018021 -0.173961 -1.152791
-1.0197819 -0.173961 -1.152791
-1.026527 -0.17481001 -1.158414
-1.30124 -0.22121 -1.4658951
-1.311576 -0.22258399 -1.475
-1.31383 -0.22258399 -1.475
-1.332638 -0.225384 -1.493553
-1.310199 -0.22121 -1.4658951
-1.296434 -0.218513 -1.448018
-1.2454849 -0.20956799 -1.388742
-1.212164 -0.203614 -1.3492889
-1.214226 -0.203614 -1.3492889
-1.209416 -0.202464 -1.341666
-1.494133 -0.248861 -1.649132
-1.456203 -0.242135 -1.60456
-1.324422 -0.219853 -1.456901
-1.228657 -0.203614 -1.3492889
-1.183642 -0.195825 -1.297677
-1.185625 -0.195825 -1.297677
-1.30923 -0.21588001 -1.430572
-1.360594 -0.223975 -1.484218
-1.256413 -0.204777 -1.357
-1.244266 -0.202464 -1.341666
-1.239314 -0.201326 -1.334129
-1.241353 -0.201326 -1.334129
-1.243391 -0.201326 -1.334129
-1.252466 -0.202464 -1.341666
-1.2761461 -0.205954 -1.364799
-1.339833 -0.21588001 -1.430572
-1.342018 -0.21588001 -1.430572
-1.297313 -0.208349 -1.380668
-1.269891 -0.203614 -1.3492889
-1.271952 -0.203614 -1.3492889
-26.40579 -3.9817841 -26.386105
-0.18843 -0.28503099 -1.869881
-0.18979201 -0.28280401 -1.855273
-0.192627 -0.28280401 -1.855273
-0.257929 -0.37318501 -2.448195
-0.26166999 -0.37318501 -2.448195
-0.168602 -0.23056599 -1.512579
-0.170913 -0.23056599 -1.512579
-0.173225 -0.23056599 -1.512579
-0.167025 -0.21938699 -1.439242
-0.16233701 -0.21045899 -1.380668
-0.158904 -0.203365 -1.334129
-0.150777 -0.190521 -1.249868
-0.151097 -0.188536 -1.236849
-0.152986 -0.188536 -1.236849
-0.15487599 -0.188536 -1.236849
-0.155954 -0.18755899 -1.23044
-0.161174 -0.19152901 -1.2564811
-0.16396201 -0.19254699 -1.263165
-0.167676 -0.194618 -1.276747
-0.173355 -0.19889501 -1.3048069
-0.18236201 -0.20685101 -1.357
-0.18443599 -0.20685101 -1.357
-0.216153 -0.239728 -1.572682
-0.157152 -0.17237601 -1.130833
-0.149618 -0.16232701 -1.0649101
-0.149901 -0.16088399 -1.055444
-0.148867 -0.15807401 -1.037009
-0.150451 -0.15807401 -1.037009
-0.152036 -0.15807401 -1.037009
-0.22550701 -0.232044 -1.522275
-0.224949 -0.22910701 -1.503006
-0.227245 -0.22910701 -1.503006
-0.172398 -0.16232701 -1.0649101
-0.17020901 -0.158767 -1.041557
-0.16321 -0.150829 -0.98947901
-0.164722 -0.150829 -0.98947901
-0.166234 -0.150829 -0.98947901
-0.174282 -0.15670501 -1.02803
-0.175852 -0.15670501 -1.02803
-0.176658 -0.15603 -1.023599
-0.172282 -0.150829 -0.98947901
-0.173794 -0.150829 -0.98947901
-0.17530601 -0.150829 -0.98947901
-0.185311 -0.15807401 -1.037009
-0.19192401 -0.16232701 -1.0649101
-0.46915099 -0.393466 -2.581249
-0.518152 -0.43093899 -2.8270831
-0.52247101 -0.43093899 -2.8270831
-0.52679098 -0.43093899 -2.8270831
-0.544065 -0.44145 -2.8960359
-0.54848999 -0.44145 -2.8960359
-0.202406 -0.16160201 -1.060156
-0.204026 -0.16160201 -1.060156
-0.207499 -0.163058 -1.069707
-0.58661902 -0.44690001 -2.9317889
-0.50935102 -0.385095 -2.526329
-0.44045001 -0.32320499 -2.120312
-0.41411099 -0.301658 -1.978958
-0.41713399 -0.301658 -1.978958
-0.41327 -0.29671201 -1.946516
-0.41286001 -0.29429999 -1.930691
-0.22731 -0.16088399 -1.055444
-0.22791 -0.160172 -1.050774
-0.231564 -0.16160201 -1.060156
-0.23318399 -0.16160201 -1.060156
-0.23537301 -0.16088399 -1.055444
-0.235937 -0.160172 -1.050774
-0.236496 -0.159467 -1.046145
-0.237051 -0.158767 -1.041557
-0.23864201 -0.158767 -1.041557
-0.240234 -0.158767 -1.041557
-0.24289 -0.159467 -1.046145
-0.243416 -0.158767 -1.041557
-0.241826 -0.15670501 -1.02803
-0.243397 -0.15670501 -1.02803
-0.25150001 -0.16088399 -1.055444
-0.253113 -0.16088399 -1.055444
-0.253598 -0.160172 -1.050774
-5.0784812 -3.0165761 -19.789579
-3.6061549 -2.129348 -13.969114
-5.138957 -3.0165761 -19.789579
-1.972466 -1.131216 -7.421092
-1.813765 -1.034255 -6.7849979
-1.773461 -1.005525 -6.5965261
-1.68967 -0.95260298 -6.249341
-1.699219 -0.95260298 -6.249341
-2.0291619 -1.131216 -7.421092
-2.0405011 -1.131216 -7.421092
-2.0518401 -1.131216 -7.421092
-2.000659 -1.0969369 -7.1962099
-1.659615 -0.90497297 -5.936873
-1.516988 -0.82270199 -5.3971581
-1.720777 -0.928177 -6.0891008
-2.176554 -1.167707 -7.6604819
-0.90225601 -0.46408901 -3.0445499
-0.87331897 -0.44690001 -2.9317889
-0.87779897 -0.44690001 -2.9317889
-0.99984598 -0.44145 -2.8960359
-7.5853429 -3.2908101 -21.588631
-5.2376022 -2.2624321 -14.842184
-4.007833 -1.723758 -11.308331
-3.675102 -1.573866 -10.324998
-3.6908779 -1.573866 -10.324998
-4.7362809 -2.01105 -13.193052
-5.707727 -2.41326 -15.831663
-5.373673 -2.2624321 -14.842184
-5.3963509 -2.2624321 -14.842184
-5.4190302 -2.2624321 -14.842184
-1.649626 -0.682998 -4.480659
-1.4160171 -0.58385301 -3.830241
-1.421869 -0.58385301 -3.830241
-3.1613841 -1.292818 -8.4812479
-3.2919109 -1.3407 -8.7953682
-4.0565662 -1.6454051 -10.794315
-4.07306 -1.6454051 -10.794315
-1.306023 -0.51712698 -3.392499
-1.311206 -0.51712698 -3.392499
-1.2978491 -0.50984401 -3.344718
-1.142101 -0.44690001 -2.9317889
-1.132598 -0.44145 -2.8960359
-6.0313468 -2.2624321 -14.842184
-2.9352851 -1.0969369 -7.1962099
-2.8596261 -1.064674 -6.9845572
-2.8702979 -1.064674 -6.9845572
-6.9966412 -2.5856359 -16.962496
-6.5785789 -2.41326 -15.831663
-4.9520769 -1.809945 -11.873747
-8.3441753 -3.0165761 -19.789579
-5.9113512 -2.129348 -13.969114
-5.9326949 -2.129348 -13.969114
-3.8930261 -1.392266 -9.1336517
-2.308671 -0.82270199 -5.3971581
-2.169029 -0.77019 -5.052659
-2.087903 -0.73875302 -4.846427
-2.0953081 -0.73875302 -4.846427
-1.8733259 -0.658162 -4.3177261
-1.813961 -0.63506901 -4.1662269
-1.729311 -0.603315 -3.957916
-1.679379 -0.58385301 -3.830241
-1.685232 -0.58385301 -3.830241
-11.730326 -4.0221009 -26.386105
-9.6305256 -3.2908101 -21.588631
-11.81096 -4.0221009 -26.386105
-8.20473 -2.7845311 -18.267303
-7.1349559 -2.41326 -15.831663
-5.9659562 -2.01105 -13.193052
-6.3382392 -2.129348 -13.969114
-8.3163776 -2.7845311 -18.267303
-2.190742 -0.69613302 -4.5668259
-2.1977201 -0.69613302 -4.5668259
-2.2046981 -0.69613302 -4.5668259
-1.982882 -0.62411898 -4.0943961
-1.922834 -0.603315 -3.957916
-1.701954 -0.53233701 -3.4922791
-1.547943 -0.48265201 -3.166332
-0.96652901 -0.28280401 -1.855273
-0.99413902 -0.28503099 -1.869881
-0.98920703 -0.28280401 -1.855273
-0.98435199 -0.28061199 -1.840891
-0.94329101 -0.26813999 -1.759074
-0.94597799 -0.26813999 -1.759074
-16.084585 -4.0221009 -26.386105
-13.193101 -3.2908101 -21.588631
-12.123914 -3.0165761 -19.789579
-8.6861238 -2.129348 -13.969114
-6.435955 -1.573866 -10.324998
-5.11689 -1.248238 -8.1887913
-5.3125949 -1.292818 -8.4812479
-5.3255539 -1.292818 -8.4812479
-5.3385129 -1.292818 -8.4812479
-11.637896 -2.7845311 -18.267303
-15.16555 -3.6198909 -23.747494
-11.69372 -2.7845311 -18.267303
-10.884373 -2.5856359 -16.962496
-9.546504 -2.2624321 -14.842184
-8.058259 -1.905206 -12.498681
-7.6734891 -1.809945 -11.873747
-8.0964546 -1.905206 -12.498681
-8.1155519 -1.905206 -12.498681
-11.039882 -2.5856359 -16.962496
-1.9728 -0.45248601 -2.968437
-1.738317 -0.39779001 -2.6096151
-1.981872 -0.45248601 -2.968437
-0.704759 -0.160172 -1.050774
-0.66516 -0.150829 -0.98947901
-0.66667199 -0.150829 -0.98947901
-0.66818303 -0.150829 -0.98947901
-0.66969502 -0.150829 -0.98947901
-0.67120701 -0.150829 -0.98947901
-0.67574298 -0.150829 -0.98947901
-0.67725497 -0.150829 -0.98947901
-0.67876703 -0.150829 -0.98947901
-0.68481398 -0.150829 -0.98947901
-0.68632603 -0.150829 -0.98947901
-0.68783802 -0.150829 -0.98947901
-0.68935001 -0.150829 -0.98947901
-0.75003701 -0.16232701 -1.0649101
-0.698421 -0.150829 -0.98947901
-0.69993299 -0.150829 -0.98947901
-0.70144498 -0.150829 -0.98947901
-0.70295697 -0.150829 -0.98947901
-0.70446903 -0.150829 -0.98947901
-0.70598102 -0.150829 -0.98947901
-0.70749301 -0.150829 -0.98947901
-0.81416798 -0.17320099 -1.1362441
-0.82778603 -0.175723 -1.152791
-0.81764001 -0.17320099 -1.1362441
-0.80778098 -0.17075001 -1.120165
-0.80192798 -0.169154 -1.109696
-0.79618198 -0.167588 -1.099421
-0.79054201 -0.16605 -1.089335
-0.788589 -0.16529199 -1.08436
-0.783095 -0.16379599 -1.0745471
-0.76399499 -0.159467 -1.046145
-0.75890702 -0.15807401 -1.037009
-0.76049101 -0.15807401 -1.037009
-1.175531 -0.241326 -1.583166
-0.84948301 -0.174033 -1.141706
-0.83516699 -0.17075001 -1.120165
-0.82138097 -0.167588 -1.099421
-0.79722399 -0.16232701 -1.0649101
-0.79175103 -0.16088399 -1.055444
-0.78637302 -0.159467 -1.046145
-0.78109002 -0.15807401 -1.037009
-0.77589798 -0.15670501 -1.02803
-0.74831402 -0.150829 -0.98947901
-0.74982601 -0.150829 -0.98947901
-0.75133801 -0.150829 -0.98947901
-0.75285 -0.150829 -0.98947901
-0.75436097 -0.150829 -0.98947901
-0.75587302 -0.150829 -0.98947901
-0.75738502 -0.150829 -0.98947901
-0.75889701 -0.150829 -0.98947901
-0.80043101 -0.158767 -1.041557
-0.80555499 -0.159467 -1.046145
-0.807154 -0.159467 -1.046145
-0.808752 -0.159467 -1.046145
-0.76645702 -0.150829 -0.98947901
-0.76796901 -0.150829 -0.98947901
-0.76947999 -0.150829 -0.98947901
-0.79757798 -0.15603 -1.023599
-0.799142 -0.15603 -1.023599
-0.80766898 -0.157387 -1.0325
-0.80924702 -0.157387 -1.0325
-0.77704 -0.150829 -0.98947901
-0.778552 -0.150829 -0.98947901
-0.78006399 -0.150829 -0.98947901
-0.80852598 -0.15603 -1.023599
-0.81359702 -0.15670501 -1.02803
-0.84441203 -0.16232701 -1.0649101
-1.494136 -0.28503099 -1.869881
-0.83752501 -0.159467 -1.046145
-0.82459301 -0.15670501 -1.02803
-0.795183 -0.150829 -0.98947901
-0.79669499 -0.150829 -0.98947901
-0.79820597 -0.150829 -0.98947901
-0.79971802 -0.150829 -0.98947901
-1.383419 -0.26042399 -1.7084531
-1.38603 -0.26042399 -1.7084531
-1.378721 -0.258564 -1.69625
-1.361858 -0.254922 -1.672359
-0.85351002 -0.159467 -1.046145
-0.80879003 -0.150829 -0.98947901
-0.81030202 -0.150829 -0.98947901
-0.81634903 -0.150829 -0.98947901
-0.860906 -0.158767 -1.041557
-1.012956 -0.183751 -1.205457
-0.98480397 -0.17832001 -1.169827
-0.97696602 -0.17658 -1.158414
-0.97873598 -0.17658 -1.158414
-0.99506801 -0.179203 -1.175619
-0.98887002 -0.17744599 -1.164093
-0.97159803 -0.174033 -1.141706
-0.973342 -0.174033 -1.141706
-0.97042102 -0.17320099 -1.1362441
-0.97683102 -0.174033 -1.141706
-0.98330301 -0.17487399 -1.147222
-0.989838 -0.175723 -1.152791
-0.99159902 -0.175723 -1.152791
-0.993361 -0.175723 -1.152791
-1.423578 -0.25138101 -1.649132
-1.426097 -0.25138101 -1.649132
-1.409047 -0.24793801 -1.626541
-1.411533 -0.24793801 -1.626541
-1.394909 -0.244587 -1.60456
-1.387983 -0.242946 -1.593792
-1.3998131 -0.244587 -1.60456
-1.210819 -0.21045899 -1.380668
-1.178665 -0.204514 -1.341666
-1.1420031 -0.197808 -1.297677
-1.021217 -0.17658 -1.158414
-1.013103 -0.17487399 -1.147222
-1.014856 -0.17487399 -1.147222
-1.252607 -0.21547 -1.413541
-1.334183 -0.22910701 -1.503006
-1.311576 -0.224838 -1.475
-1.31383 -0.224838 -1.475
-1.332638 -0.22766601 -1.493553
-1.310199 -0.22345001 -1.4658951
-1.243363 -0.21168999 -1.388742
-1.2170171 -0.20685101 -1.357
-1.212164 -0.205676 -1.3492889
-1.200583 -0.203365 -1.334129
-1.473665 -0.24793801 -1.626541
-1.355459 -0.22766601 -1.493553
-1.308369 -0.21938699 -1.439242
-1.235678 -0.20685101 -1.357
-1.190146 -0.19889501 -1.3048069
-1.19214 -0.19889501 -1.3048069
-1.30923 -0.21806601 -1.430572
-1.258486 -0.20685101 -1.357
-1.246316 -0.204514 -1.341666
-1.241353 -0.203365 -1.334129
-1.236445 -0.20222899 -1.326676
-1.2315921 -0.201105 -1.3193049
-1.254516 -0.204514 -1.341666
-1.339833 -0.21806601 -1.430572
-1.342018 -0.21806601 -1.430572
-1.282402 -0.20804 -1.364799
-1.269891 -0.205676 -1.3492889
-1.2865731 -0.20804 -1.364799
-23.728926 -3.6198909 -23.747494
-21.604738 -3.2908101 -21.588631
-0.185508 -0.283425 -1.840891
-0.18979201 -0.28563899 -1.855273
-0.192627 -0.28563899 -1.855273
-0.257929 -0.37692499 -2.448195
-0.26166999 -0.37692499 -2.448195
-0.16398001 -0.232877 -1.512579
-0.166291 -0.232877 -1.512579
-0.16753501 -0.23140401 -1.503006
-0.16983201 -0.23140401 -1.503006
-0.17212801 -0.23140401 -1.503006
-0.172245 -0.22851101 -1.484218
-0.167197 -0.218933 -1.422006
-0.15402 -0.196569 -1.276747
-0.151097 -0.19042601 -1.236849
-0.152986 -0.19042601 -1.236849
-0.15328 -0.188463 -1.224098
-0.15515 -0.188463 -1.224098
-0.161174 -0.19344801 -1.2564811
-0.16572499 -0.196569 -1.276747
-0.172308 -0.20199899 -1.312016
-0.180289 -0.208924 -1.357
-0.192249 -0.22025201 -1.430572
-0.22259501 -0.25215 -1.637758
-0.225097 -0.25215 -1.637758
-0.21429799 -0.237414 -1.542045
-0.216655 -0.237414 -1.542045
-0.149901 -0.162497 -1.055444
-0.146942 -0.157594 -1.023599
-0.148506 -0.157594 -1.023599
-0.230571 -0.24213099 -1.572682
-0.23297399 -0.24213099 -1.572682
-0.23382799 -0.240538 -1.562335
-0.230159 -0.23436999 -1.522275
-0.16571 -0.157594 -1.023599
-0.161698 -0.15234099 -0.98947901
-0.16321 -0.15234099 -0.98947901
-0.164722 -0.15234099 -0.98947901
-0.166234 -0.15234099 -0.98947901
-0.17657501 -0.160359 -1.041557
-0.176617 -0.15896399 -1.0325
-0.17077 -0.15234099 -0.98947901
-0.172282 -0.15234099 -0.98947901
-0.173794 -0.15234099 -0.98947901
-0.17530601 -0.15234099 -0.98947901
-0.186124 -0.160359 -1.041557
-0.191067 -0.163222 -1.060156
-0.52636403 -0.44587499 -2.8960359
-0.53078902 -0.44587499 -2.8960359
-0.52247101 -0.43525901 -2.8270831
-0.520594 -0.43013799 -2.793823
-0.50696898 -0.41547501 -2.6985791
-0.20168699 -0.163954 -1.0649101
-0.202406 -0.163222 -1.060156
-0.205864 -0.164693 -1.069707
-0.21130601 -0.167715 -1.089335
-0.50163102 -0.388955 -2.526329
-0.47996101 -0.369311 -2.398737
-0.48362601 -0.369311 -2.398737
-0.44845799 -0.33238 -2.1588631
-0.43976301 -0.32355499 -2.101548
-0.42783001 -0.31249401 -2.0297
-0.42368901 -0.30724201 -1.9955879
-0.41286001 -0.29725 -1.930691
-0.22731 -0.162497 -1.055444
-0.22892199 -0.162497 -1.055444
-0.231564 -0.163222 -1.060156
-0.246383 -0.172461 -1.120165
-0.25461 -0.175778 -1.141706
-0.235937 -0.161778 -1.050774
-0.236496 -0.161065 -1.046145
-0.237051 -0.160359 -1.041557
-0.23864201 -0.160359 -1.041557
-0.241292 -0.161065 -1.046145
-0.245049 -0.162497 -1.055444
-0.24666201 -0.162497 -1.055444
-0.24287701 -0.15896399 -1.0325
-0.24445499 -0.15896399 -1.0325
-0.25150001 -0.162497 -1.055444
-0.253113 -0.162497 -1.055444
-0.25472501 -0.162497 -1.055444
-6.1304631 -3.6561761 -23.747494
-4.4825749 -2.6115539 -16.962496
-1.972466 -1.142555 -7.421092
-1.867111 -1.075346 -6.9845572
-1.824132 -1.0446219 -6.7849979
-1.834499 -1.0446219 -6.7849979
-1.956676 -1.107932 -7.1962099
-2.0291619 -1.142555 -7.421092
-2.0405011 -1.142555 -7.421092
-2.0518401 -1.142555 -7.421092
-1.941816 -1.075346 -6.9845572
-1.7021689 -0.93748099 -6.0891008
-1.668686 -0.91404402 -5.936873
-1.917437 -1.0446219 -6.7849979
-2.108536 -1.142555 -7.421092
-2.1882589 -1.179412 -7.6604819
-1.060805 -0.55396599 -3.598105
-0.964055 -0.50084603 -3.2530811
-0.90690798 -0.468741 -3.0445499
-0.91156 -0.468741 -3.0445499
-1.006543 -0.51495397 -3.344718
-6.8596339 -3.323797 -21.588631
-2.0491569 -0.98815602 -6.418242
-2.058964 -0.98815602 -6.418242
-1.041816 -0.468741 -3.0445499
-1.060058 -0.474828 -3.08409
-0.99984598 -0.44587499 -2.8960359
-7.5853429 -3.323797 -21.588631
-4.9295082 -2.150692 -13.969114
-3.6593261 -1.589642 -10.324998
-4.226367 -1.828088 -11.873747
-4.2445102 -1.828088 -11.873747
-4.4870028 -1.9243031 -12.498681
-4.7564392 -2.031209 -13.193052
-5.0575738 -2.150692 -13.969114
-4.111506 -1.7410361 -11.308331
-4.1287851 -1.7410361 -11.308331
-2.5608039 -1.075346 -6.9845572
-1.821462 -0.76170301 -4.9473948
-1.540229 -0.64143401 -4.1662269
-3.1484251 -1.305777 -8.4812479
-4.215178 -1.7410361 -11.308331
-3.555264 -1.462471 -9.4989977
-3.8801939 -1.589642 -10.324998
-3.8959701 -1.589642 -10.324998
-1.3008389 -0.52231097 -3.392499
-1.252351 -0.50084603 -3.2530811
-1.292739 -0.51495397 -3.344718
-1.279824 -0.50780201 -3.2982631
-1.30296 -0.51495397 -3.344718
-3.1129529 -1.179412 -7.6604819
-2.9352851 -1.107932 -7.1962099
-2.7779219 -1.0446219 -6.7849979
-2.8702979 -1.075346 -6.9845572
-6.9966412 -2.6115539 -16.962496
-7.0225592 -2.6115539 -16.962496
-5.8046279 -2.150692 -13.969114
-4.9520769 -1.828088 -11.873747
-8.3441753 -3.046813 -19.789579
-5.9113512 -2.150692 -13.969114
-3.87907 -1.406222 -9.1336517
-2.8919621 -1.0446219 -6.7849979
-2.2082939 -0.79482102 -5.162499
-2.123841 -0.76170301 -4.9473948
-2.087903 -0.746158 -4.846427
-2.0953081 -0.746158 -4.846427
-1.8733259 -0.66475898 -4.3177261
-1.813961 -0.64143401 -4.1662269
-1.7009619 -0.59937298 -3.8930321
-1.601869 -0.56248897 -3.653461
-1.607452 -0.56248897 -3.653461
-9.5975389 -3.323797 -21.588631
-9.6305256 -3.323797 -21.588631
-8.8582201 -3.046813 -19.789579
-7.6186781 -2.6115539 -16.962496
-6.2955499 -2.150692 -13.969114
-5.9659562 -2.031209 -13.193052
-6.3382392 -2.150692 -13.969114
-6.7570572 -2.28511 -14.842184
-10.847577 -3.6561761 -23.747494
-2.190742 -0.70311099 -4.5668259
-2.1977201 -0.70311099 -4.5668259
-2.247927 -0.71689701 -4.6563721
-2.2550421 -0.71689701 -4.6563721
-1.989138 -0.63037503 -4.0943961
-1.543105 -0.48749 -3.166332
-1.469566 -0.462807 -3.006012
-0.98920703 -0.28563899 -1.855273
-0.95474702 -0.27489999 -1.785526
-0.94329101 -0.27082801 -1.759074
-0.94597799 -0.27082801 -1.759074
-9.8442736 -2.4374509 -15.831663
-7.048903 -1.7410361 -11.308331
-6.4517312 -1.589642 -10.324998
-5.3125949 -1.305777 -8.4812479
-5.3255539 -1.305777 -8.4812479
-15.16555 -3.6561761 -23.747494
-13.819851 -3.323797 -21.588631
-10.884373 -2.6115539 -16.962496
-10.182938 -2.4374509 -15.831663
-9.0062885 -2.150692 -13.969114
-8.0773563 -1.9243031 -12.498681
-8.546257 -2.031209 -13.193052
-9.6372185 -2.28511 -14.842184
-11.039882 -2.6115539 -16.962496
-11.0658 -2.6115539 -16.962496
-15.528405 -3.6561761 -23.747494
-1.738317 -0.40177801 -2.6096151
-0.70636398 -0.161778 -1.050774
-0.67120701 -0.15234099 -0.98947901
-0.67574298 -0.15234099 -0.98947901
-0.67725497 -0.15234099 -0.98947901
-0.67876703 -0.15234099 -0.98947901
-0.68481398 -0.15234099 -0.98947901
-0.68632603 -0.15234099 -0.98947901
-0.68783802 -0.15234099 -0.98947901
-0.68935001 -0.15234099 -0.98947901
-0.69690901 -0.15234099 -0.98947901
-0.698421 -0.15234099 -0.98947901
-0.69993299 -0.15234099 -0.98947901
-0.70144498 -0.15234099 -0.98947901
-0.70295697 -0.15234099 -0.98947901
-0.70446903 -0.15234099 -0.98947901
-0.70598102 -0.15234099 -0.98947901
-0.70749301 -0.15234099 -0.98947901
-0.766491 -0.164693 -1.069707
-0.80435801 -0.172461 -1.120165
-0.80607003 -0.172461 -1.120165
-0.80778098 -0.172461 -1.120165
-0.79819798 -0.170055 -1.104535
-0.79618198 -0.169267 -1.099421
-0.79054201 -0.167715 -1.089335
-0.788589 -0.166949 -1.08436
-0.783095 -0.165438 -1.0745471
-0.76064402 -0.160359 -1.041557
-0.72412401 -0.15234099 -0.98947901
-0.72563499 -0.15234099 -0.98947901
-0.72714698 -0.15234099 -0.98947901
-1.269863 -0.26493999 -1.7208329
-1.211062 -0.25215 -1.637758
-1.2052521 -0.25042301 -1.626541
-1.191417 -0.24703901 -1.60456
-0.79175103 -0.162497 -1.055444
-0.77950603 -0.159658 -1.037009
-0.77099001 -0.157594 -1.023599
-0.74680197 -0.15234099 -0.98947901
-0.74831402 -0.15234099 -0.98947901
-0.74982601 -0.15234099 -0.98947901
-0.75133801 -0.15234099 -0.98947901
-0.75285 -0.15234099 -0.98947901
-0.75436097 -0.15234099 -0.98947901
-0.75587302 -0.15234099 -0.98947901
-0.75738502 -0.15234099 -0.98947901
-0.75889701 -0.15234099 -0.98947901
-0.760409 -0.15234099 -0.98947901
-0.80555499 -0.161065 -1.046145
-0.807154 -0.161065 -1.046145
-0.79820299 -0.15896399 -1.0325
-0.76645702 -0.15234099 -0.98947901
-0.819166 -0.162497 -1.055444
-0.82444298 -0.163222 -1.060156
-0.82239199 -0.162497 -1.055444
-0.80260199 -0.15827601 -1.02803
-0.77401602 -0.15234099 -0.98947901
-0.77552801 -0.15234099 -0.98947901
-0.77704 -0.15234099 -0.98947901
-0.778552 -0.15234099 -0.98947901
-0.81753403 -0.159658 -1.037009
-0.81911802 -0.159658 -1.037009
-0.842785 -0.163954 -1.0649101
-0.79064697 -0.15234099 -0.98947901
-0.79215902 -0.15234099 -0.98947901
-0.79367101 -0.15234099 -0.98947901
-0.795183 -0.15234099 -0.98947901
-0.79669499 -0.15234099 -0.98947901
-0.79820597 -0.15234099 -0.98947901
-0.79971802 -0.15234099 -0.98947901
-0.80123001 -0.15234099 -0.98947901
-1.356747 -0.25747699 -1.672359
-1.359303 -0.25747699 -1.672359
-1.342943 -0.253901 -1.649132
-0.80727798 -0.15234099 -0.98947901
-0.80879003 -0.15234099 -0.98947901
-0.81030202 -0.15234099 -0.98947901
-0.811813 -0.15234099 -0.98947901
-0.81332499 -0.15234099 -0.98947901
-0.81483698 -0.15234099 -0.98947901
-0.81634903 -0.15234099 -0.98947901
-1.027679 -0.191423 -1.243324
-1.02079 -0.189439 -1.23044
-1.017398 -0.188463 -1.224098
-1.0140409 -0.18749601 -1.21782
-1.347625 -0.24871901 -1.615476
-1.012956 -0.18559299 -1.205457
-0.98480397 -0.180107 -1.169827
-0.98659098 -0.180107 -1.169827
-0.988379 -0.180107 -1.169827
-0.985313 -0.179224 -1.164093
-0.99686402 -0.180999 -1.175619
-0.97159803 -0.175778 -1.141706
-0.973342 -0.175778 -1.141706
-0.97042102 -0.17493699 -1.1362441
-0.97683102 -0.175778 -1.141706
-0.98330301 -0.176627 -1.147222
-0.98505598 -0.176627 -1.147222
-0.98680902 -0.176627 -1.147222
-0.98856199 -0.176627 -1.147222
-1.423578 -0.253901 -1.649132
-1.446183 -0.25747699 -1.672359
-1.428617 -0.253901 -1.649132
-1.431137 -0.253901 -1.649132
-1.4336571 -0.253901 -1.649132
-1.387983 -0.245381 -1.593792
-1.3904181 -0.245381 -1.593792
-1.392853 -0.245381 -1.593792
-1.208709 -0.212568 -1.380668
-1.1833 -0.207737 -1.3492889
-1.14002 -0.199791 -1.297677
-1.019447 -0.17835 -1.158414
-1.01135 -0.176627 -1.147222
-1.003408 -0.17493699 -1.1362441
-1.009977 -0.175778 -1.141706
-1.252607 -0.21763 -1.413541
-1.334183 -0.23140401 -1.503006
-1.256927 -0.21763 -1.413541
-1.236997 -0.213811 -1.388742
-1.224794 -0.21134 -1.3726881
-1.226892 -0.21134 -1.3726881
-1.214944 -0.208924 -1.357
-1.210102 -0.207737 -1.3492889
-1.191848 -0.204256 -1.326676
-1.193875 -0.204256 -1.326676
-1.195902 -0.204256 -1.326676
-0.99903399 -0.170055 -1.104535
-0.97797799 -0.16619 -1.079432
-0.96644801 -0.163954 -1.0649101
-0.96807498 -0.163954 -1.0649101
-1.181659 -0.199791 -1.297677
-1.183642 -0.199791 -1.297677
-1.185625 -0.199791 -1.297677
-1.194133 -0.20088901 -1.3048069
