# .PCD v0.7 - Point Cloud Data file format
VERSION 0.7
FIELDS x y z
SIZE 4 4 4
TYPE F F F
COUNT 1 1 1
WIDTH 1282
HEIGHT 1
VIEWPOINT 0 0 0 1 0 0 0
POINTS 1282
DATA ascii
0.0091915801 0.00070698 0.0098947901
0.0092067001 0.00070698 0.0098947901
0.0092520602 0.00070698 0.0098947901
0.0092671802 0.00070698 0.0098947901
0.012300201 0.00093229004 0.01304807
0.0093881302 0.00070698 0.0098947901
0.0094032502 0.00070698 0.0098947901
0.00941836 0.00070698 0.0098947901
0.00943348 0.00070698 0.0098947901
0.0094486 0.00070698 0.0098947901
0.00946372 0.00070698 0.0098947901
0.00947884 0.00070698 0.0098947901
0.0094939601 0.00070698 0.0098947901
0.0095393201 0.00070698 0.0098947901
0.0095544402 0.00070698 0.0098947901
0.016382379 0.0027078802 0.03710546
0.01618617 0.0026662201 0.036534611
0.01624199 0.0026662201 0.036534611
0.10653117 0.01575496 0.21588631
0.090420872 0.01333112 0.18267304
0.090700001 0.01333112 0.18267304
0.098560713 0.01444204 0.19789578
0.098863088 0.01444204 0.19789578
0.099165469 0.01444204 0.19789578
0.09181647 0.01333112 0.18267304
0.085517339 0.01237889 0.16962495
0.08005809 0.011553629 0.15831663
0.07528124 0.01083153 0.14842182
0.075508021 0.01083153 0.14842182
0.075734809 0.01083153 0.14842182
0.07596159 0.01083153 0.14842182
0.076188371 0.01083153 0.14842182
0.076415159 0.01083153 0.14842182
0.087590791 0.01237889 0.16962495
0.087849982 0.01237889 0.16962495
0.12335283 0.017330449 0.23747493
0.11246879 0.01575496 0.21588631
0.11312853 0.01575496 0.21588631
0.10521305 0.01444204 0.19789578
0.097398855 0.01333112 0.18267304
0.10672495 0.01444204 0.19789578
0.1073297 0.01444204 0.19789578
0.11774669 0.01575496 0.21588631
0.11840642 0.01575496 0.21588631
0.10914398 0.01444204 0.19789578
0.10974874 0.01444204 0.19789578
0.111563 0.01444204 0.19789578
0.096143797 0.01237889 0.16962495
0.10409772 0.01333112 0.18267304
0.10465595 0.01333112 0.18267304
0.11398204 0.01444204 0.19789578
0.1145868 0.01444204 0.19789578
0.098735616 0.01237889 0.16962495
0.09925399 0.01237889 0.16962495
0.09287896 0.011553629 0.15831663
0.093120858 0.011553629 0.15831663
0.093362764 0.011553629 0.15831663
0.087754376 0.01083153 0.14842182
0.093846567 0.011553629 0.15831663
0.09408848 0.011553629 0.15831663
0.094330378 0.011553629 0.15831663
0.094572276 0.011553629 0.15831663
0.10158662 0.01237889 0.16962495
0.1096801 0.01333112 0.18267304
0.0076133902 0.00089795003 0.0123044
0.0075928499 0.00089332002 0.01224098
0.00765099 0.00089795003 0.0123044
0.0076302602 0.00089332002 0.01224098
0.0076885903 0.00089795003 0.0123044
0.0076676602 0.00089332002 0.01224098
0.0076863701 0.00089332002 0.01224098
0.0077050696 0.00089332002 0.01224098
0.00776379 0.00089795003 0.0123044
0.0081633106 0.00090263004 0.012368489
0.0081822006 0.00090263004 0.012368489
0.0082010999 0.00090263004 0.012368489
0.0082200002 0.00090263004 0.012368489
0.0082388995 0.00090263004 0.012368489
0.0082577998 0.00090263004 0.012368489
0.0082767 0.00090263004 0.012368489
0.0082955994 0.00090263004 0.012368489
0.0082714204 0.00089795003 0.0123044
0.0082902201 0.00089795003 0.0123044
0.0083090197 0.00089795003 0.0123044
0.0083278194 0.00089795003 0.0123044
0.0083900895 0.00090263004 0.012368489
0.0084089898 0.00090263004 0.012368489
0.00842789 0.00090263004 0.012368489
0.0084467903 0.00090263004 0.012368489
0.0084656803 0.00090263004 0.012368489
0.0084845796 0.00090263004 0.012368489
0.0085034799 0.00090263004 0.012368489
0.0086120898 0.00091213005 0.012498681
0.0086311903 0.00091213005 0.012498681
0.0086049996 0.00090735004 0.01243324
0.0086693801 0.00091213005 0.012498681
0.0086884806 0.00091213005 0.012498681
0.0086619901 0.00090735004 0.01243324
0.0086357705 0.00090263004 0.012368489
0.0086546699 0.00090263004 0.012368489
0.0087189795 0.00090735004 0.01243324
0.0087379804 0.00090735004 0.01243324
0.0087569794 0.00090735004 0.01243324
0.0087759802 0.00090735004 0.01243324
0.0087949699 0.00090735004 0.01243324
0.0088139698 0.00090735004 0.01243324
0.0088329706 0.00090735004 0.01243324
0.0088058598 0.00090263004 0.012368489
0.0088247601 0.00090263004 0.012368489
0.0088436594 0.00090263004 0.012368489
0.0088625597 0.00090263004 0.012368489
0.0088814599 0.00090263004 0.012368489
0.0089940401 0.00091213005 0.012498681
0.0071807597 0.00072209997 0.0098947901
0.0071958797 0.00072209997 0.0098947901
0.0072109997 0.00072209997 0.0098947901
0.0072261202 0.00072209997 0.0098947901
0.0072412402 0.00072209997 0.0098947901
0.00725635 0.00072209997 0.0098947901
0.00727147 0.00072209997 0.0098947901
0.0072865896 0.00072209997 0.0098947901
0.0073017101 0.00072209997 0.0098947901
0.010150519 0.00100176 0.01372687
0.036659751 0.0036105099 0.049473938
0.036735341 0.0036105099 0.049473938
0.036810938 0.0036105099 0.049473938
0.036886528 0.0036105099 0.049473938
0.036962129 0.0036105099 0.049473938
0.037037719 0.0036105099 0.049473938
0.03711332 0.0036105099 0.049473938
0.03718891 0.0036105099 0.049473938
0.0372645 0.0036105099 0.049473938
0.037340101 0.0036105099 0.049473938
0.037415698 0.0036105099 0.049473938
0.037491292 0.0036105099 0.049473938
0.037566882 0.0036105099 0.049473938
0.037642479 0.0036105099 0.049473938
0.037718069 0.0036105099 0.049473938
0.03779367 0.0036105099 0.049473938
0.03786926 0.0036105099 0.049473938
0.037944861 0.0036105099 0.049473938
0.038020451 0.0036105099 0.049473938
0.038096048 0.0036105099 0.049473938
0.038171638 0.0036105099 0.049473938
0.038247239 0.0036105099 0.049473938
0.038322829 0.0036105099 0.049473938
0.03839843 0.0036105099 0.049473938
0.03768884 0.00353683 0.048464268
0.037762892 0.00353683 0.048464268
0.038625211 0.0036105099 0.049473938
0.0387008 0.0036105099 0.049473938
0.038776401 0.0036105099 0.049473938
0.038851999 0.0036105099 0.049473938
0.0079669496 0.00072209997 0.0098947901
0.0079820594 0.00072209997 0.0098947901
0.0079971803 0.00072209997 0.0098947901
0.0080123004 0.00072209997 0.0098947901
0.0080274204 0.00072209997 0.0098947901
0.0080425404 0.00072209997 0.0098947901
0.0080576595 0.00072209997 0.0098947901
0.0080727795 0.00072209997 0.0098947901
0.0080879005 0.00072209997 0.0098947901
0.0081030205 0.00072209997 0.0098947901
0.040741857 0.0036105099 0.049473938
0.040817462 0.0036105099 0.049473938
0.040058497 0.00353683 0.048464268
0.040968653 0.0036105099 0.049473938
0.0082693202 0.00072209997 0.0098947901
0.0082844403 0.00072209997 0.0098947901
0.0082995603 0.00072209997 0.0098947901
0.0083146803 0.00072209997 0.0098947901
0.041648999 0.0036105099 0.049473938
0.0084961094 0.00072209997 0.0098947901
0.0085112294 0.00072209997 0.0098947901
0.0085263504 0.00072209997 0.0098947901
0.0085414704 0.00072209997 0.0098947901
0.0085565802 0.00072209997 0.0098947901
0.0085717002 0.00072209997 0.0098947901
0.0085868202 0.00072209997 0.0098947901
0.0086019402 0.00072209997 0.0098947901
0.0086170603 0.00072209997 0.0098947901
0.0086321803 0.00072209997 0.0098947901
0.0086473003 0.00072209997 0.0098947901
0.0086624203 0.00072209997 0.0098947901
0.0086775394 0.00072209997 0.0098947901
0.0086926501 0.00072209997 0.0098947901
0.0087077701 0.00072209997 0.0098947901
0.0087228902 0.00072209997 0.0098947901
0.0087380102 0.00072209997 0.0098947901
0.0087531302 0.00072209997 0.0098947901
0.0087682493 0.00072209997 0.0098947901
0.0087833703 0.00072209997 0.0098947901
0.0087984903 0.00072209997 0.0098947901
0.0088136103 0.00072209997 0.0098947901
0.0088287303 0.00072209997 0.0098947901
0.0088438401 0.00072209997 0.0098947901
0.0088589601 0.00072209997 0.0098947901
0.0088740801 0.00072209997 0.0098947901
0.0088892002 0.00072209997 0.0098947901
0.0089043202 0.00072209997 0.0098947901
0.0089194402 0.00072209997 0.0098947901
0.0089345602 0.00072209997 0.0098947901
0.0089496793 0.00072209997 0.0098947901
0.0089648003 0.00072209997 0.0098947901
0.0089799203 0.00072209997 0.0098947901
0.0089950301 0.00072209997 0.0098947901
0.0090101501 0.00072209997 0.0098947901
0.0090252701 0.00072209997 0.0098947901
0.0090403901 0.00072209997 0.0098947901
0.0090555102 0.00072209997 0.0098947901
0.0090706302 0.00072209997 0.0098947901
0.0090857502 0.00072209997 0.0098947901
0.0091008702 0.00072209997 0.0098947901
0.0091159903 0.00072209997 0.0098947901
0.0091311 0.00072209997 0.0098947901
0.0091462201 0.00072209997 0.0098947901
0.0091613401 0.00072209997 0.0098947901
0.0091764601 0.00072209997 0.0098947901
0.0091915801 0.00072209997 0.0098947901
0.0092067001 0.00072209997 0.0098947901
0.0092218202 0.00072209997 0.0098947901
0.0092369402 0.00072209997 0.0098947901
0.0092520602 0.00072209997 0.0098947901
0.0092671802 0.00072209997 0.0098947901
0.00928229 0.00072209997 0.0098947901
0.00929741 0.00072209997 0.0098947901
0.00931253 0.00072209997 0.0098947901
0.0093276501 0.00072209997 0.0098947901
0.0093427701 0.00072209997 0.0098947901
0.0094032502 0.00072209997 0.0098947901
0.00941836 0.00072209997 0.0098947901
0.00943348 0.00072209997 0.0098947901
0.0094486 0.00072209997 0.0098947901
0.00946372 0.00072209997 0.0098947901
0.00947884 0.00072209997 0.0098947901
0.0094939601 0.00072209997 0.0098947901
0.0095393201 0.00072209997 0.0098947901
0.0095544402 0.00072209997 0.0098947901
0.0095695499 0.00072209997 0.0098947901
0.10653117 0.01608482 0.21588631
0.090420872 0.01361024 0.18267304
0.090700001 0.01361024 0.18267304
0.090979122 0.01361024 0.18267304
0.098863088 0.01474442 0.19789578
0.099165469 0.01474442 0.19789578
0.09181647 0.01361024 0.18267304
0.092095591 0.01361024 0.18267304
0.08005809 0.011795539 0.15831663
0.07528124 0.011058319 0.14842182
0.075508021 0.011058319 0.14842182
0.075734809 0.011058319 0.14842182
0.07596159 0.011058319 0.14842182
0.076188371 0.011058319 0.14842182
0.076415159 0.011058319 0.14842182
0.081751406 0.011795539 0.15831663
0.081993312 0.011795539 0.15831663
0.088109158 0.01263808 0.16962495
0.088368341 0.01263808 0.16962495
0.088886701 0.01263808 0.16962495
0.10521305 0.01474442 0.19789578
0.10551544 0.01474442 0.19789578
0.10672495 0.01474442 0.19789578
0.1073297 0.01474442 0.19789578
0.11774669 0.01608482 0.21588631
0.11840642 0.01608482 0.21588631
0.10914398 0.01474442 0.19789578
0.10974874 0.01474442 0.19789578
0.1103535 0.01474442 0.19789578
0.11095825 0.01474442 0.19789578
0.10298124 0.01361024 0.18267304
0.089734212 0.011795539 0.15831663
0.11277253 0.01474442 0.19789578
0.1133773 0.01474442 0.19789578
0.11398204 0.01474442 0.19789578
0.1145868 0.01474442 0.19789578
0.098735616 0.01263808 0.16962495
0.09925399 0.01263808 0.16962495
0.099513166 0.01263808 0.16962495
0.093120858 0.011795539 0.15831663
0.093362764 0.011795539 0.15831663
0.087754376 0.011058319 0.14842182
0.087981157 0.011058319 0.14842182
0.088207938 0.011058319 0.14842182
0.094330378 0.011795539 0.15831663
0.094572276 0.011795539 0.15831663
0.10158662 0.01263808 0.16962495
0.1096801 0.01361024 0.18267304
0.021606158 0.0026407901 0.035444017
0.02166032 0.0026407901 0.035444017
0.0076321899 0.00091675 0.0123044
0.00765099 0.00091675 0.0123044
0.0076697897 0.00091675 0.0123044
0.0076885903 0.00091675 0.0123044
0.00770739 0.00091675 0.0123044
0.0077261901 0.00091675 0.0123044
0.0077449898 0.00091675 0.0123044
0.01196995 0.0013931701 0.01869881
0.01172163 0.00136102 0.0182673
0.011659849 0.00135063 0.018127861
0.011777461 0.00136102 0.0182673
0.01221661 0.0013822899 0.01855273
0.0081633106 0.00092152995 0.012368489
0.0081822006 0.00092152995 0.012368489
0.0082010999 0.00092152995 0.012368489
0.0082200002 0.00092152995 0.012368489
0.0082388995 0.00092152995 0.012368489
0.0082577998 0.00092152995 0.012368489
0.0082767 0.00092152995 0.012368489
0.0082955994 0.00092152995 0.012368489
0.0083144996 0.00092152995 0.012368489
0.0082902201 0.00091675 0.0123044
0.0083090197 0.00091675 0.0123044
0.0083278194 0.00091675 0.0123044
0.0083900895 0.00092152995 0.012368489
0.0084530199 0.00092635001 0.01243324
0.0084720096 0.00092635001 0.01243324
0.0084910104 0.00092635001 0.01243324
0.0084656803 0.00092152995 0.012368489
0.0084845796 0.00092152995 0.012368489
0.0085034799 0.00092152995 0.012368489
0.0085223801 0.00092152995 0.012368489
0.0085412804 0.00092152995 0.012368489
0.0086049996 0.00092635001 0.01243324
0.0086239902 0.00092635001 0.01243324
0.0086884806 0.00093122997 0.012498681
0.0087075802 0.00093122997 0.012498681
0.00868099 0.00092635001 0.01243324
0.0086999796 0.00092635001 0.01243324
0.0087189795 0.00092635001 0.01243324
0.0087379804 0.00092635001 0.01243324
0.0087569794 0.00092635001 0.01243324
0.0087759802 0.00092635001 0.01243324
0.0087949699 0.00092635001 0.01243324
0.0088139698 0.00092635001 0.01243324
0.0088329706 0.00092635001 0.01243324
0.0088519696 0.00092635001 0.01243324
0.0088709602 0.00092635001 0.01243324
0.0088436594 0.00092152995 0.012368489
0.0088625597 0.00092152995 0.012368489
0.0088814599 0.00092152995 0.012368489
0.0089940401 0.00093122997 0.012498681
0.0090608299 0.00093615003 0.012564811
0.0090895304 0.00093122997 0.012498681
0.0072109997 0.00073721999 0.0098947901
0.0072261202 0.00073721999 0.0098947901
0.0072412402 0.00073721999 0.0098947901
0.00725635 0.00073721999 0.0098947901
0.00727147 0.00073721999 0.0098947901
0.0072865896 0.00073721999 0.0098947901
0.0073017101 0.00073721999 0.0098947901
0.0073168301 0.00073721999 0.0098947901
0.0073319501 0.00073721999 0.0098947901
0.036735341 0.00368611 0.049473938
0.036886528 0.00368611 0.049473938
0.036962129 0.00368611 0.049473938
0.00740754 0.00073721999 0.0098947901
0.00742266 0.00073721999 0.0098947901
0.03718891 0.00368611 0.049473938
0.0372645 0.00368611 0.049473938
0.037340101 0.00368611 0.049473938
0.037415698 0.00368611 0.049473938
0.037491292 0.00368611 0.049473938
0.037566882 0.00368611 0.049473938
0.037642479 0.00368611 0.049473938
0.037718069 0.00368611 0.049473938
0.03779367 0.00368611 0.049473938
0.03786926 0.00368611 0.049473938
0.037944861 0.00368611 0.049473938
0.038020451 0.00368611 0.049473938
0.038096048 0.00368611 0.049473938
0.038171638 0.00368611 0.049473938
0.038247239 0.00368611 0.049473938
0.038322829 0.00368611 0.049473938
0.03839843 0.00368611 0.049473938
0.03847402 0.00368611 0.049473938
0.0078762295 0.00073721999 0.0098947901
0.0079367105 0.00073721999 0.0098947901
0.0079518296 0.00073721999 0.0098947901
0.0079669496 0.00073721999 0.0098947901
0.0079820594 0.00073721999 0.0098947901
0.0079971803 0.00073721999 0.0098947901
0.0080123004 0.00073721999 0.0098947901
0.0080274204 0.00073721999 0.0098947901
0.0080425404 0.00073721999 0.0098947901
0.0080576595 0.00073721999 0.0098947901
0.0080727795 0.00073721999 0.0098947901
0.0080879005 0.00073721999 0.0098947901
0.0081030205 0.00073721999 0.0098947901
0.0081181303 0.00073721999 0.0098947901
0.0081332503 0.00073721999 0.0098947901
0.0081483694 0.00073721999 0.0098947901
0.0081634903 0.00073721999 0.0098947901
0.0081786104 0.00073721999 0.0098947901
0.039329901 0.00353866 0.047494989
0.0082542095 0.00073721999 0.0098947901
0.0082693202 0.00073721999 0.0098947901
0.0082844403 0.00073721999 0.0098947901
0.0082995603 0.00073721999 0.0098947901
0.039910469 0.00353866 0.047494989
0.041648999 0.00368611 0.049473938
0.0085263504 0.00073721999 0.0098947901
0.0085414704 0.00073721999 0.0098947901
0.0085565802 0.00073721999 0.0098947901
0.0085717002 0.00073721999 0.0098947901
0.0085868202 0.00073721999 0.0098947901
0.0086019402 0.00073721999 0.0098947901
0.0086170603 0.00073721999 0.0098947901
0.0086321803 0.00073721999 0.0098947901
0.0086473003 0.00073721999 0.0098947901
0.0086624203 0.00073721999 0.0098947901
0.0086775394 0.00073721999 0.0098947901
0.0086926501 0.00073721999 0.0098947901
0.0087077701 0.00073721999 0.0098947901
0.0087228902 0.00073721999 0.0098947901
0.0087380102 0.00073721999 0.0098947901
0.0087531302 0.00073721999 0.0098947901
0.0087682493 0.00073721999 0.0098947901
0.0087833703 0.00073721999 0.0098947901
0.0087984903 0.00073721999 0.0098947901
0.0088136103 0.00073721999 0.0098947901
0.0088287303 0.00073721999 0.0098947901
0.0088438401 0.00073721999 0.0098947901
0.0088589601 0.00073721999 0.0098947901
0.0088740801 0.00073721999 0.0098947901
0.0088892002 0.00073721999 0.0098947901
0.0089043202 0.00073721999 0.0098947901
0.0089194402 0.00073721999 0.0098947901
0.0089345602 0.00073721999 0.0098947901
0.0089496793 0.00073721999 0.0098947901
0.0089648003 0.00073721999 0.0098947901
0.0089799203 0.00073721999 0.0098947901
0.0089950301 0.00073721999 0.0098947901
0.0090101501 0.00073721999 0.0098947901
0.0090252701 0.00073721999 0.0098947901
0.0090403901 0.00073721999 0.0098947901
0.0090555102 0.00073721999 0.0098947901
0.0090706302 0.00073721999 0.0098947901
0.0090857502 0.00073721999 0.0098947901
0.0091008702 0.00073721999 0.0098947901
0.0091159903 0.00073721999 0.0098947901
0.0091311 0.00073721999 0.0098947901
0.0091462201 0.00073721999 0.0098947901
0.0091613401 0.00073721999 0.0098947901
0.0091764601 0.00073721999 0.0098947901
0.0091915801 0.00073721999 0.0098947901
0.0092067001 0.00073721999 0.0098947901
0.0092218202 0.00073721999 0.0098947901
0.0092369402 0.00073721999 0.0098947901
0.0092520602 0.00073721999 0.0098947901
0.0092671802 0.00073721999 0.0098947901
0.00928229 0.00073721999 0.0098947901
0.00929741 0.00073721999 0.0098947901
0.00931253 0.00073721999 0.0098947901
0.0093276501 0.00073721999 0.0098947901
0.0093427701 0.00073721999 0.0098947901
0.0094032502 0.00073721999 0.0098947901
0.00941836 0.00073721999 0.0098947901
0.00943348 0.00073721999 0.0098947901
0.0094486 0.00073721999 0.0098947901
0.00946372 0.00073721999 0.0098947901
0.00947884 0.00073721999 0.0098947901
0.0094939601 0.00073721999 0.0098947901
0.0095393201 0.00073721999 0.0098947901
0.0095544402 0.00073721999 0.0098947901
0.0095695499 0.00073721999 0.0098947901
0.10653117 0.016414691 0.21588631
0.10686104 0.016414691 0.21588631
0.090700001 0.01388936 0.18267304
0.090979122 0.01388936 0.18267304
0.091258243 0.01388936 0.18267304
0.091537349 0.01388936 0.18267304
0.085258149 0.01289726 0.16962495
0.085517339 0.01289726 0.16962495
0.08005809 0.01203744 0.15831663
0.080299988 0.01203744 0.15831663
0.075508021 0.0112851 0.14842182
0.080783799 0.01203744 0.15831663
0.081025697 0.01203744 0.15831663
0.076188371 0.0112851 0.14842182
0.076415159 0.0112851 0.14842182
0.081751406 0.01203744 0.15831663
0.081993312 0.01203744 0.15831663
0.08223521 0.01203744 0.15831663
0.077322304 0.0112851 0.14842182
0.095445022 0.01388936 0.18267304
0.082960919 0.01203744 0.15831663
0.096003264 0.01388936 0.18267304
0.083444729 0.01203744 0.15831663
0.1258928 0.01805616 0.23747493
0.12625566 0.01805616 0.23747493
0.10551544 0.0150468 0.19789578
0.11642721 0.016414691 0.21588631
0.11708695 0.016414691 0.21588631
0.11774669 0.016414691 0.21588631
0.11840642 0.016414691 0.21588631
0.093551978 0.01289726 0.16962495
0.10974874 0.0150468 0.19789578
0.1103535 0.0150468 0.19789578
0.102423 0.01388936 0.18267304
0.089250416 0.01203744 0.15831663
0.089734212 0.01203744 0.15831663
0.10409772 0.01388936 0.18267304
0.10465595 0.01388936 0.18267304
0.11398204 0.0150468 0.19789578
0.1145868 0.0150468 0.19789578
0.098735616 0.01289726 0.16962495
0.09925399 0.01289726 0.16962495
0.099513166 0.01289726 0.16962495
0.087300807 0.0112851 0.14842182
0.087527588 0.0112851 0.14842182
0.087754376 0.0112851 0.14842182
0.087981157 0.0112851 0.14842182
0.088207938 0.0112851 0.14842182
0.094330378 0.01203744 0.15831663
0.10132745 0.01289726 0.16962495
0.10940098 0.01388936 0.18267304
0.02166032 0.0026949502 0.035444017
0.0074228002 0.00092123001 0.01211607
0.01121922 0.00138894 0.0182673
0.01127504 0.00138894 0.0182673
0.0076133902 0.00093555002 0.0123044
0.0076321899 0.00093555002 0.0123044
0.00765099 0.00093555002 0.0123044
0.0076697897 0.00093555002 0.0123044
0.00772864 0.00094043004 0.012368489
0.01178437 0.0013997001 0.018408909
0.01163215 0.0013783299 0.018127861
0.011659849 0.0013783299 0.018127861
0.011687551 0.0013783299 0.018127861
0.011896879 0.0013997001 0.018408909
0.01218826 0.0014106401 0.01855273
0.0081444103 0.00094043004 0.012368489
0.0081633106 0.00094043004 0.012368489
0.0081822006 0.00094043004 0.012368489
0.024603309 0.0028212802 0.03710546
0.0083278194 0.00093555002 0.0123044
0.0084910104 0.00094534998 0.01243324
0.0085100103 0.00094534998 0.01243324
0.0084845796 0.00094043004 0.012368489
0.0085034799 0.00094043004 0.012368489
0.0085223801 0.00094043004 0.012368489
0.0085412804 0.00094043004 0.012368489
0.0085601797 0.00094043004 0.012368489
0.0086239902 0.00094534998 0.01243324
0.0087344497 0.00095535 0.012564811
0.0087536499 0.00095535 0.012564811
0.0087266807 0.00095031998 0.012498681
0.0086999796 0.00094534998 0.01243324
0.0087648705 0.00095031998 0.012498681
0.0087379804 0.00094534998 0.01243324
0.0087569794 0.00094534998 0.01243324
0.0087759802 0.00094534998 0.01243324
0.0087949699 0.00094534998 0.01243324
0.0088603599 0.00095031998 0.012498681
0.0088329706 0.00094534998 0.01243324
0.0088519696 0.00094534998 0.01243324
0.0088709602 0.00094534998 0.01243324
0.0088899601 0.00094534998 0.01243324
0.0088625597 0.00094043004 0.012368489
0.0088814599 0.00094043004 0.012368489
0.0089469496 0.00094534998 0.01243324
0.0090131406 0.00095031998 0.012498681
0.00908003 0.00095535 0.012564811
0.0090513406 0.00095031998 0.012498681
0.0072261202 0.00075234001 0.0098947901
0.0072412402 0.00075234001 0.0098947901
0.00725635 0.00075234001 0.0098947901
0.00727147 0.00075234001 0.0098947901
0.0072865896 0.00075234001 0.0098947901
0.0073017101 0.00075234001 0.0098947901
0.0073168301 0.00075234001 0.0098947901
0.0073319501 0.00075234001 0.0098947901
0.0073470701 0.00075234001 0.0098947901
0.036886528 0.0037617001 0.049473938
0.00739242 0.00075234001 0.0098947901
0.00740754 0.00075234001 0.0098947901
0.00742266 0.00075234001 0.0098947901
0.00743778 0.00075234001 0.0098947901
0.0372645 0.0037617001 0.049473938
0.037340101 0.0037617001 0.049473938
0.037415698 0.0037617001 0.049473938
0.037491292 0.0037617001 0.049473938
0.036800209 0.0036849298 0.048464268
0.03779367 0.0037617001 0.049473938
0.03786926 0.0037617001 0.049473938
0.037944861 0.0037617001 0.049473938
0.0077855201 0.00075234001 0.0098947901
0.0078006401 0.00075234001 0.0098947901
0.0078157596 0.00075234001 0.0098947901
0.0078308703 0.00075234001 0.0098947901
0.0078459904 0.00075234001 0.0098947901
0.0078611104 0.00075234001 0.0098947901
0.0078762295 0.00075234001 0.0098947901
0.0078913495 0.00075234001 0.0098947901
0.0079064695 0.00075234001 0.0098947901
0.0079215905 0.00075234001 0.0098947901
0.0079367105 0.00075234001 0.0098947901
0.0079518296 0.00075234001 0.0098947901
0.0079669496 0.00075234001 0.0098947901
0.0079820594 0.00075234001 0.0098947901
0.0079971803 0.00075234001 0.0098947901
0.0080123004 0.00075234001 0.0098947901
0.0080274204 0.00075234001 0.0098947901
0.0080425404 0.00075234001 0.0098947901
0.0080576595 0.00075234001 0.0098947901
0.0080727795 0.00075234001 0.0098947901
0.0080879005 0.00075234001 0.0098947901
0.0081030205 0.00075234001 0.0098947901
0.0081181303 0.00075234001 0.0098947901
0.0081332503 0.00075234001 0.0098947901
0.0081483694 0.00075234001 0.0098947901
0.0081634903 0.00075234001 0.0098947901
0.0081786104 0.00075234001 0.0098947901
0.0081937304 0.00075234001 0.0098947901
0.0082390895 0.00075234001 0.0098947901
0.0082542095 0.00075234001 0.0098947901
0.0082693202 0.00075234001 0.0098947901
0.0082844403 0.00075234001 0.0098947901
0.0082995603 0.00075234001 0.0098947901
0.039910469 0.0036112301 0.047494989
0.040799022 0.0036849298 0.048464268
0.0417246 0.0037617001 0.049473938
0.04180019 0.0037617001 0.049473938
0.0085414704 0.00075234001 0.0098947901
0.0085565802 0.00075234001 0.0098947901
0.0085717002 0.00075234001 0.0098947901
0.0085868202 0.00075234001 0.0098947901
0.0086019402 0.00075234001 0.0098947901
0.0086170603 0.00075234001 0.0098947901
0.0086321803 0.00075234001 0.0098947901
0.0086473003 0.00075234001 0.0098947901
0.0086624203 0.00075234001 0.0098947901
0.0086775394 0.00075234001 0.0098947901
0.0086926501 0.00075234001 0.0098947901
0.0087077701 0.00075234001 0.0098947901
0.0087228902 0.00075234001 0.0098947901
0.0087380102 0.00075234001 0.0098947901
0.0087531302 0.00075234001 0.0098947901
0.0087682493 0.00075234001 0.0098947901
0.0087833703 0.00075234001 0.0098947901
0.0087984903 0.00075234001 0.0098947901
0.0088136103 0.00075234001 0.0098947901
0.0088287303 0.00075234001 0.0098947901
0.0088438401 0.00075234001 0.0098947901
0.0088589601 0.00075234001 0.0098947901
0.0088740801 0.00075234001 0.0098947901
0.0088892002 0.00075234001 0.0098947901
0.0089043202 0.00075234001 0.0098947901
0.0089194402 0.00075234001 0.0098947901
0.0089345602 0.00075234001 0.0098947901
0.0089496793 0.00075234001 0.0098947901
0.0089648003 0.00075234001 0.0098947901
0.0089799203 0.00075234001 0.0098947901
0.0089950301 0.00075234001 0.0098947901
0.0090101501 0.00075234001 0.0098947901
0.0090252701 0.00075234001 0.0098947901
0.0090403901 0.00075234001 0.0098947901
0.0090555102 0.00075234001 0.0098947901
0.0090706302 0.00075234001 0.0098947901
0.0090857502 0.00075234001 0.0098947901
0.0091008702 0.00075234001 0.0098947901
0.0091159903 0.00075234001 0.0098947901
0.0091311 0.00075234001 0.0098947901
0.0091462201 0.00075234001 0.0098947901
0.0091613401 0.00075234001 0.0098947901
0.0091764601 0.00075234001 0.0098947901
0.0091915801 0.00075234001 0.0098947901
0.0092067001 0.00075234001 0.0098947901
0.0092218202 0.00075234001 0.0098947901
0.0092369402 0.00075234001 0.0098947901
0.0092520602 0.00075234001 0.0098947901
0.0092671802 0.00075234001 0.0098947901
0.00928229 0.00075234001 0.0098947901
0.00929741 0.00075234001 0.0098947901
0.00931253 0.00075234001 0.0098947901
0.0093276501 0.00075234001 0.0098947901
0.0093427701 0.00075234001 0.0098947901
0.0093578901 0.00075234001 0.0098947901
0.0093730101 0.00075234001 0.0098947901
0.0094032502 0.00075234001 0.0098947901
0.00941836 0.00075234001 0.0098947901
0.00943348 0.00075234001 0.0098947901
0.0094486 0.00075234001 0.0098947901
0.00946372 0.00075234001 0.0098947901
0.0095393201 0.00075234001 0.0098947901
0.0095544402 0.00075234001 0.0098947901
0.0095695499 0.00075234001 0.0098947901
0.10686104 0.01674456 0.21588631
0.10719091 0.01674456 0.21588631
0.098560713 0.01534918 0.19789578
0.084739789 0.01315644 0.16962495
0.084998973 0.01315644 0.16962495
0.085258149 0.01315644 0.16962495
0.085517339 0.01315644 0.16962495
0.085776523 0.01315644 0.16962495
0.086035699 0.01315644 0.16962495
0.086294882 0.01315644 0.16962495
0.086554058 0.01315644 0.16962495
0.086813249 0.01315644 0.16962495
0.081267595 0.01227934 0.15831663
0.081509501 0.01227934 0.15831663
0.081751406 0.01227934 0.15831663
0.081993312 0.01227934 0.15831663
0.077095509 0.011511889 0.14842182
0.077322304 0.011511889 0.14842182
0.082719021 0.01227934 0.15831663
0.082960919 0.01227934 0.15831663
0.089145891 0.01315644 0.16962495
0.078229435 0.011511889 0.14842182
0.11411814 0.01674456 0.21588631
0.078682996 0.011511889 0.14842182
0.12625566 0.01841902 0.23747493
0.090441801 0.01315644 0.16962495
0.09096016 0.01315644 0.16962495
0.11642721 0.01674456 0.21588631
0.11708695 0.01674456 0.21588631
0.099631809 0.01416847 0.18267304
0.10853922 0.01534918 0.19789578
0.10914398 0.01534918 0.19789578
0.10974874 0.01534918 0.19789578
0.083672255 0.011511889 0.14842182
0.096662171 0.01315644 0.16962495
0.09718053 0.01315644 0.16962495
0.097698897 0.01315644 0.16962495
0.098217256 0.01315644 0.16962495
0.098735616 0.01315644 0.16962495
0.09925399 0.01315644 0.16962495
0.087074019 0.011511889 0.14842182
0.087300807 0.011511889 0.14842182
0.087527588 0.011511889 0.14842182
0.087754376 0.011511889 0.14842182
0.087981157 0.011511889 0.14842182
0.088207938 0.011511889 0.14842182
0.02166032 0.0027491099 0.035444017
0.0074228002 0.00093975 0.01211607
0.00744132 0.00093975 0.01211607
0.0074980902 0.00094457 0.0121782
0.0075166901 0.00094457 0.0121782
0.0075741396 0.00094943005 0.01224098
0.0075928499 0.00094943005 0.01224098
0.00765099 0.00095434999 0.0123044
0.0077097397 0.00095931999 0.012368489
0.01172163 0.0014168499 0.0182673
0.011840629 0.00142783 0.018408909
0.011687551 0.00140603 0.018127861
0.011896879 0.00142783 0.018408909
0.0080458103 0.00095434999 0.0123044
0.0081066098 0.00095931999 0.012368489
0.0081255101 0.00095931999 0.012368489
0.0081444103 0.00095931999 0.012368489
0.0081633106 0.00095931999 0.012368489
0.024546608 0.00287797 0.03710546
0.024603309 0.00287797 0.03710546
0.0085290102 0.00096435001 0.01243324
0.0085034799 0.00095931999 0.012368489
0.0085223801 0.00095931999 0.012368489
0.0085412804 0.00095931999 0.012368489
0.0085601797 0.00095931999 0.012368489
0.0086239902 0.00096435001 0.01243324
0.0087344497 0.00097455003 0.012564811
0.0087536499 0.00097455003 0.012564811
0.0087648705 0.00096942001 0.012498681
0.0087379804 0.00096435001 0.01243324
0.0087569794 0.00096435001 0.01243324
0.0087759802 0.00096435001 0.01243324
0.0088519696 0.00096435001 0.01243324
0.0088709602 0.00096435001 0.01243324
0.0088899601 0.00096435001 0.01243324
0.0088625597 0.00095931999 0.012368489
0.0088814599 0.00095931999 0.012368489
0.0089003602 0.00095931999 0.012368489
0.0089659505 0.00096435001 0.01243324
0.0090322401 0.00096942001 0.012498681
0.0090513406 0.00096942001 0.012498681
0.00907043 0.00096942001 0.012498681
0.0072412402 0.00076746003 0.0098947901
0.00725635 0.00076746003 0.0098947901
0.00727147 0.00076746003 0.0098947901
0.0072865896 0.00076746003 0.0098947901
0.0073017101 0.00076746003 0.0098947901
0.0073168301 0.00076746003 0.0098947901
0.0073319501 0.00076746003 0.0098947901
0.0073470701 0.00076746003 0.0098947901
0.0073621897 0.00076746003 0.0098947901
0.0073773097 0.00076746003 0.0098947901
0.00739242 0.00076746003 0.0098947901
0.00740754 0.00076746003 0.0098947901
0.00742266 0.00076746003 0.0098947901
0.00743778 0.00076746003 0.0098947901
0.0074528996 0.00076746003 0.0098947901
0.037340101 0.0038373 0.049473938
0.037415698 0.0038373 0.049473938
0.036726162 0.00375898 0.048464268
0.036800209 0.00375898 0.048464268
0.03786926 0.0038373 0.049473938
0.0077704 0.00076746003 0.0098947901
0.0077855201 0.00076746003 0.0098947901
0.0078006401 0.00076746003 0.0098947901
0.0078157596 0.00076746003 0.0098947901
0.0078308703 0.00076746003 0.0098947901
0.0078459904 0.00076746003 0.0098947901
0.0078611104 0.00076746003 0.0098947901
0.0078762295 0.00076746003 0.0098947901
0.0078913495 0.00076746003 0.0098947901
0.0079064695 0.00076746003 0.0098947901
0.0079215905 0.00076746003 0.0098947901
0.0079367105 0.00076746003 0.0098947901
0.0079518296 0.00076746003 0.0098947901
0.0079669496 0.00076746003 0.0098947901
0.0079820594 0.00076746003 0.0098947901
0.0079971803 0.00076746003 0.0098947901
0.0080123004 0.00076746003 0.0098947901
0.0080274204 0.00076746003 0.0098947901
0.0080425404 0.00076746003 0.0098947901
0.0080576595 0.00076746003 0.0098947901
0.0080727795 0.00076746003 0.0098947901
0.0080879005 0.00076746003 0.0098947901
0.0081030205 0.00076746003 0.0098947901
0.0081181303 0.00076746003 0.0098947901
0.0081332503 0.00076746003 0.0098947901
0.0081483694 0.00076746003 0.0098947901
0.0081634903 0.00076746003 0.0098947901
0.0081786104 0.00076746003 0.0098947901
0.04119543 0.0038373 0.049473938
0.0082542095 0.00076746003 0.0098947901
0.0082693202 0.00076746003 0.0098947901
0.0082844403 0.00076746003 0.0098947901
0.039837901 0.0036838001 0.047494989
0.04072497 0.00375898 0.048464268
0.040799022 0.00375898 0.048464268
0.0417246 0.0038373 0.049473938
0.04180019 0.0038373 0.049473938
0.0085565802 0.00076746003 0.0098947901
0.0085717002 0.00076746003 0.0098947901
0.0085868202 0.00076746003 0.0098947901
0.0086019402 0.00076746003 0.0098947901
0.0086170603 0.00076746003 0.0098947901
0.0086321803 0.00076746003 0.0098947901
0.0086473003 0.00076746003 0.0098947901
0.0086624203 0.00076746003 0.0098947901
0.0086775394 0.00076746003 0.0098947901
0.0086926501 0.00076746003 0.0098947901
0.0087077701 0.00076746003 0.0098947901
0.0087228902 0.00076746003 0.0098947901
0.0087380102 0.00076746003 0.0098947901
0.0087531302 0.00076746003 0.0098947901
0.0087682493 0.00076746003 0.0098947901
0.0087833703 0.00076746003 0.0098947901
0.0087984903 0.00076746003 0.0098947901
0.0088136103 0.00076746003 0.0098947901
0.0088287303 0.00076746003 0.0098947901
0.0088438401 0.00076746003 0.0098947901
0.0088589601 0.00076746003 0.0098947901
0.0088740801 0.00076746003 0.0098947901
0.0088892002 0.00076746003 0.0098947901
0.0089043202 0.00076746003 0.0098947901
0.0089194402 0.00076746003 0.0098947901
0.0089345602 0.00076746003 0.0098947901
0.0089496793 0.00076746003 0.0098947901
0.0089648003 0.00076746003 0.0098947901
0.0089799203 0.00076746003 0.0098947901
0.0089950301 0.00076746003 0.0098947901
0.0090101501 0.00076746003 0.0098947901
0.0090252701 0.00076746003 0.0098947901
0.0090403901 0.00076746003 0.0098947901
0.0090555102 0.00076746003 0.0098947901
0.0090706302 0.00076746003 0.0098947901
0.0090857502 0.00076746003 0.0098947901
0.0091008702 0.00076746003 0.0098947901
0.0091159903 0.00076746003 0.0098947901
0.0091311 0.00076746003 0.0098947901
0.0091462201 0.00076746003 0.0098947901
0.0091613401 0.00076746003 0.0098947901
0.0091764601 0.00076746003 0.0098947901
0.0091915801 0.00076746003 0.0098947901
0.0092067001 0.00076746003 0.0098947901
0.0092218202 0.00076746003 0.0098947901
0.0092369402 0.00076746003 0.0098947901
0.0092520602 0.00076746003 0.0098947901
0.0092671802 0.00076746003 0.0098947901
0.00928229 0.00076746003 0.0098947901
0.00929741 0.00076746003 0.0098947901
0.00931253 0.00076746003 0.0098947901
0.0093276501 0.00076746003 0.0098947901
0.0093427701 0.00076746003 0.0098947901
0.0093578901 0.00076746003 0.0098947901
0.0093730101 0.00076746003 0.0098947901
0.0093881302 0.00076746003 0.0098947901
0.0094032502 0.00076746003 0.0098947901
0.00941836 0.00076746003 0.0098947901
0.00943348 0.00076746003 0.0098947901
0.0094486 0.00076746003 0.0098947901
0.0095242001 0.00076746003 0.0098947901
0.0095393201 0.00076746003 0.0098947901
0.0095544402 0.00076746003 0.0098947901
0.11827285 0.018781869 0.23747493
0.098863088 0.015651559 0.19789578
0.091537349 0.01444759 0.18267304
0.085258149 0.013415621 0.16962495
0.085517339 0.013415621 0.16962495
0.085776523 0.013415621 0.16962495
0.092653826 0.01444759 0.18267304
0.10067736 0.015651559 0.19789578
0.10097974 0.015651559 0.19789578
0.10128212 0.015651559 0.19789578
0.093770303 0.01444759 0.18267304
0.087331608 0.013415621 0.16962495
0.081751406 0.01252125 0.15831663
0.081993312 0.01252125 0.15831663
0.077095509 0.01173867 0.14842182
0.077322304 0.01173867 0.14842182
0.077549078 0.01173867 0.14842182
0.077775858 0.01173867 0.14842182
0.083202831 0.01252125 0.15831663
0.078229435 0.01173867 0.14842182
0.083686627 0.01252125 0.15831663
0.078682996 0.01173867 0.14842182
0.11477787 0.01707443 0.21588631
0.084412344 0.01252125 0.15831663
0.084896132 0.01252125 0.15831663
0.12806992 0.018781869 0.23747493
0.12879564 0.018781869 0.23747493
0.099631809 0.01444759 0.18267304
0.10853922 0.015651559 0.19789578
0.10914398 0.015651559 0.19789578
0.10974874 0.015651559 0.19789578
0.096662171 0.013415621 0.16962495
0.09718053 0.013415621 0.16962495
0.097698897 0.013415621 0.16962495
0.098217256 0.013415621 0.16962495
0.098735616 0.013415621 0.16962495
0.15399192 0.02086875 0.26386106
0.09925399 0.013415621 0.16962495
0.087074019 0.01173867 0.14842182
0.087300807 0.01173867 0.14842182
0.087527588 0.01173867 0.14842182
0.087754376 0.01173867 0.14842182
0.087981157 0.01173867 0.14842182
0.0074042897 0.00095825997 0.01211607
0.0074228002 0.00095825997 0.01211607
0.00744132 0.00095825997 0.01211607
0.00745983 0.00095825997 0.01211607
0.0074783401 0.00095825997 0.01211607
0.0075353002 0.00096317002 0.0121782
0.0075928499 0.00096813997 0.01224098
0.0076115499 0.00096813997 0.01224098
0.0076697897 0.00097314996 0.0123044
0.00772864 0.00097822002 0.012368489
0.023164142 0.00288952 0.036534611
0.023219969 0.00288952 0.036534611
0.023639482 0.0029346698 0.03710546
0.01186875 0.00145596 0.018408909
0.011989829 0.00146733 0.01855273
0.0080688102 0.00097822002 0.012368489
0.0080458103 0.00097314996 0.0123044
0.00806461 0.00097314996 0.0123044
0.0081255101 0.00097822002 0.012368489
0.0081444103 0.00097822002 0.012368489
0.0237478 0.0028457399 0.035981048
0.024546608 0.0029346698 0.03710546
0.024603309 0.0029346698 0.03710546
0.0086049996 0.00098333997 0.01243324
0.0087152496 0.00099375006 0.012564811
0.0087344497 0.00099375006 0.012564811
0.0087648705 0.00098851998 0.012498681
0.0087379804 0.00098333997 0.01243324
0.0087569794 0.00098333997 0.01243324
0.0088709602 0.00098333997 0.01243324
0.0088899601 0.00098333997 0.01243324
0.0088625597 0.00097822002 0.012368489
0.0088814599 0.00097822002 0.012368489
0.0089003602 0.00097822002 0.012368489
0.0089659505 0.00098333997 0.01243324
0.0089849504 0.00098333997 0.01243324
0.0090039494 0.00098333997 0.01243324
0.00907043 0.00098851998 0.012498681
0.00725635 0.00078258 0.0098947901
0.00727147 0.00078258 0.0098947901
0.0072865896 0.00078258 0.0098947901
0.0073017101 0.00078258 0.0098947901
0.0073168301 0.00078258 0.0098947901
0.0073319501 0.00078258 0.0098947901
0.0073470701 0.00078258 0.0098947901
0.0073621897 0.00078258 0.0098947901
0.0073773097 0.00078258 0.0098947901
0.00739242 0.00078258 0.0098947901
0.00740754 0.00078258 0.0098947901
0.00742266 0.00078258 0.0098947901
0.00743778 0.00078258 0.0098947901
0.0074528996 0.00078258 0.0098947901
0.037340101 0.0039128899 0.049473938
0.037415698 0.0039128899 0.049473938
0.036726162 0.0038330399 0.048464268
0.036800209 0.0038330399 0.048464268
0.00775528 0.00078258 0.0098947901
0.0077704 0.00078258 0.0098947901
0.0077855201 0.00078258 0.0098947901
0.0078006401 0.00078258 0.0098947901
0.0078157596 0.00078258 0.0098947901
0.0078308703 0.00078258 0.0098947901
0.0078459904 0.00078258 0.0098947901
0.0078611104 0.00078258 0.0098947901
0.0078762295 0.00078258 0.0098947901
0.0078913495 0.00078258 0.0098947901
0.0079064695 0.00078258 0.0098947901
0.0079215905 0.00078258 0.0098947901
0.0079367105 0.00078258 0.0098947901
0.0079518296 0.00078258 0.0098947901
0.0079669496 0.00078258 0.0098947901
0.0079820594 0.00078258 0.0098947901
0.0079971803 0.00078258 0.0098947901
0.0080123004 0.00078258 0.0098947901
0.0080274204 0.00078258 0.0098947901
0.0080425404 0.00078258 0.0098947901
0.0080576595 0.00078258 0.0098947901
0.0080727795 0.00078258 0.0098947901
0.0080879005 0.00078258 0.0098947901
0.0081030205 0.00078258 0.0098947901
0.0081181303 0.00078258 0.0098947901
0.0081332503 0.00078258 0.0098947901
0.0081483694 0.00078258 0.0098947901
0.0081634903 0.00078258 0.0098947901
0.0081786104 0.00078258 0.0098947901
0.04119543 0.0039128899 0.049473938
0.040428758 0.0038330399 0.048464268
0.03969276 0.0037563699 0.047494989
0.041422218 0.0039128899 0.049473938
0.040650919 0.0038330399 0.048464268
0.04072497 0.0038330399 0.048464268
0.040799022 0.0038330399 0.048464268
0.0417246 0.0039128899 0.049473938
0.04180019 0.0039128899 0.049473938
0.041875791 0.0039128899 0.049473938
0.0085717002 0.00078258 0.0098947901
0.0085868202 0.00078258 0.0098947901
0.0086019402 0.00078258 0.0098947901
0.0086170603 0.00078258 0.0098947901
0.0086321803 0.00078258 0.0098947901
0.0086473003 0.00078258 0.0098947901
0.0086624203 0.00078258 0.0098947901
0.0086775394 0.00078258 0.0098947901
0.0086926501 0.00078258 0.0098947901
0.0087077701 0.00078258 0.0098947901
0.0087228902 0.00078258 0.0098947901
0.0087380102 0.00078258 0.0098947901
0.0087531302 0.00078258 0.0098947901
0.0087682493 0.00078258 0.0098947901
0.0087833703 0.00078258 0.0098947901
0.0087984903 0.00078258 0.0098947901
0.0088136103 0.00078258 0.0098947901
0.0088287303 0.00078258 0.0098947901
0.0088438401 0.00078258 0.0098947901
0.0088589601 0.00078258 0.0098947901
0.0088740801 0.00078258 0.0098947901
0.0088892002 0.00078258 0.0098947901
0.0089043202 0.00078258 0.0098947901
0.0089194402 0.00078258 0.0098947901
0.0089345602 0.00078258 0.0098947901
0.0089496793 0.00078258 0.0098947901
0.0089648003 0.00078258 0.0098947901
0.0089799203 0.00078258 0.0098947901
0.0089950301 0.00078258 0.0098947901
0.0090101501 0.00078258 0.0098947901
0.0090252701 0.00078258 0.0098947901
0.0090403901 0.00078258 0.0098947901
0.0090555102 0.00078258 0.0098947901
0.0090706302 0.00078258 0.0098947901
0.0090857502 0.00078258 0.0098947901
0.0091008702 0.00078258 0.0098947901
0.0091159903 0.00078258 0.0098947901
0.0091311 0.00078258 0.0098947901
0.0091462201 0.00078258 0.0098947901
0.0091613401 0.00078258 0.0098947901
0.0091764601 0.00078258 0.0098947901
0.0091915801 0.00078258 0.0098947901
0.0092067001 0.00078258 0.0098947901
0.0092218202 0.00078258 0.0098947901
0.0092369402 0.00078258 0.0098947901
0.0092520602 0.00078258 0.0098947901
0.0092671802 0.00078258 0.0098947901
0.00928229 0.00078258 0.0098947901
0.00929741 0.00078258 0.0098947901
0.00931253 0.00078258 0.0098947901
0.0093276501 0.00078258 0.0098947901
0.0093427701 0.00078258 0.0098947901
0.0093578901 0.00078258 0.0098947901
0.0093730101 0.00078258 0.0098947901
0.0093881302 0.00078258 0.0098947901
0.0094032502 0.00078258 0.0098947901
0.00941836 0.00078258 0.0098947901
0.00943348 0.00078258 0.0098947901
0.0094486 0.00078258 0.0098947901
0.0095242001 0.00078258 0.0098947901
0.0095393201 0.00078258 0.0098947901
0.0095544402 0.00078258 0.0098947901
0.01629873 0.0028574201 0.035444017
0.11899856 0.019144731 0.23747493
0.11936142 0.019144731 0.23747493
0.11972427 0.019144731 0.23747493
0.12008712 0.019144731 0.23747493
0.12044998 0.019144731 0.23747493
0.10188688 0.015953939 0.19789578
0.087590791 0.01367481 0.16962495
0.081993312 0.01276315 0.15831663
0.077095509 0.01196545 0.14842182
0.077322304 0.01196545 0.14842182
0.077549078 0.01196545 0.14842182
0.077775858 0.01196545 0.14842182
0.078002647 0.01196545 0.14842182
0.078229435 0.01196545 0.14842182
0.083686627 0.01276315 0.15831663
0.08392854 0.01276315 0.15831663
0.11477787 0.017404299 0.21588631
0.084412344 0.01276315 0.15831663
0.084896132 0.01276315 0.15831663
0.12806992 0.019144731 0.23747493
0.12879564 0.019144731 0.23747493
0.10793447 0.015953939 0.19789578
0.10853922 0.015953939 0.19789578
0.11906616 0.017404299 0.21588631
0.11972588 0.017404299 0.21588631
0.12302458 0.017404299 0.21588631
0.1133773 0.015953939 0.19789578
0.10521419 0.014726711 0.18267304
0.1145868 0.015953939 0.19789578
0.15318558 0.02127192 0.26386106
0.10633067 0.014726711 0.18267304
0.11549394 0.015953939 0.19789578
0.09925399 0.01367481 0.16962495
0.09287896 0.01276315 0.15831663
0.087300807 0.01196545 0.14842182
0.087527588 0.01196545 0.14842182
0.087754376 0.01196545 0.14842182
0.00742365 0.00098178 0.0121782
0.0074042897 0.00097676995 0.01211607
0.0074608703 0.00098178 0.0121782
0.00744132 0.00097676995 0.01211607
0.0074980902 0.00098178 0.0121782
0.0074783401 0.00097676995 0.01211607
0.0075353002 0.00098178 0.0121782
0.0075539099 0.00098178 0.0121782
0.0076115499 0.00098683999 0.01224098
0.0076302602 0.00098683999 0.01224098
0.00772864 0.00099712005 0.012368489
0.0078231301 0.00099712005 0.012368489
0.0078420304 0.00099712005 0.012368489
0.0078202002 0.00099195004 0.0123044
0.0077586002 0.00098178 0.0121782
0.0077772099 0.00098178 0.0121782
0.011961481 0.0014956801 0.01855273
0.011989829 0.0014956801 0.01855273
0.00804991 0.00099712005 0.012368489
0.0080688102 0.00099712005 0.012368489
0.0080458103 0.00099195004 0.0123044
0.00806461 0.00099195004 0.0123044
0.0080834106 0.00099195004 0.0123044
0.0081444103 0.00099712005 0.012368489
0.0081633106 0.00099712005 0.012368489
0.02416897 0.00294534 0.036534611
0.024603309 0.0029913601 0.03710546
0.0083711902 0.00099712005 0.012368489
0.0084218197 0.00099195004 0.0123044
0.00857908 0.00099712005 0.012368489
0.0085979803 0.00099712005 0.012368489
0.0086619901 0.00100234 0.01243324
0.00868099 0.00100234 0.01243324
0.0086999796 0.00100234 0.01243324
0.0087189795 0.00100234 0.01243324
0.0087379804 0.00100234 0.01243324
0.0087569794 0.00100234 0.01243324
0.0088709602 0.00100234 0.01243324
0.0088899601 0.00100234 0.01243324
0.0088625597 0.00099712005 0.012368489
0.0088814599 0.00099712005 0.012368489
0.0089003602 0.00099712005 0.012368489
0.0089192502 0.00099712005 0.012368489
0.0089849504 0.00100234 0.01243324
0.0090039494 0.00100234 0.01243324
0.00907043 0.00100762 0.012498681
0.0092353495 0.0010237801 0.012699191
0.00725635 0.00079769996 0.0098947901
0.00727147 0.00079769996 0.0098947901
0.0072865896 0.00079769996 0.0098947901
0.0073017101 0.00079769996 0.0098947901
0.0073168301 0.00079769996 0.0098947901
0.0073319501 0.00079769996 0.0098947901
0.0073470701 0.00079769996 0.0098947901
0.0073621897 0.00079769996 0.0098947901
0.0073773097 0.00079769996 0.0098947901
0.00739242 0.00079769996 0.0098947901
0.00740754 0.00079769996 0.0098947901
0.00742266 0.00079769996 0.0098947901
0.00743778 0.00079769996 0.0098947901
0.0074528996 0.00079769996 0.0098947901
0.037340101 0.0039884802 0.049473938
0.036726162 0.0039070901 0.048464268
0.036800209 0.0039070901 0.048464268
0.036874272 0.0039070901 0.048464268
0.03694832 0.0039070901 0.048464268
0.00775528 0.00079769996 0.0098947901
0.0077704 0.00079769996 0.0098947901
0.0077855201 0.00079769996 0.0098947901
0.0078006401 0.00079769996 0.0098947901
0.0078157596 0.00079769996 0.0098947901
0.0078308703 0.00079769996 0.0098947901
0.0078459904 0.00079769996 0.0098947901
0.0078611104 0.00079769996 0.0098947901
0.0078762295 0.00079769996 0.0098947901
0.0078913495 0.00079769996 0.0098947901
0.0079064695 0.00079769996 0.0098947901
0.0079215905 0.00079769996 0.0098947901
0.0079367105 0.00079769996 0.0098947901
0.0079518296 0.00079769996 0.0098947901
0.0079669496 0.00079769996 0.0098947901
0.0079820594 0.00079769996 0.0098947901
0.0079971803 0.00079769996 0.0098947901
0.0080123004 0.00079769996 0.0098947901
0.0080274204 0.00079769996 0.0098947901
0.0080425404 0.00079769996 0.0098947901
0.0080576595 0.00079769996 0.0098947901
0.0080727795 0.00079769996 0.0098947901
0.0080879005 0.00079769996 0.0098947901
0.0081030205 0.00079769996 0.0098947901
0.0081181303 0.00079769996 0.0098947901
0.0081332503 0.00079769996 0.0098947901
0.0081483694 0.00079769996 0.0098947901
0.0081634903 0.00079769996 0.0098947901
0.0081786104 0.00079769996 0.0098947901
0.0081937304 0.00079769996 0.0098947901
0.041044239 0.0039884802 0.049473938
0.041119836 0.0039884802 0.049473938
0.04119543 0.0039884802 0.049473938
0.041271027 0.0039884802 0.049473938
0.04050282 0.0039070901 0.048464268
0.041422218 0.0039884802 0.049473938
0.041497812 0.0039884802 0.049473938
0.04072497 0.0039070901 0.048464268
0.040799022 0.0039070901 0.048464268
0.0417246 0.0039884802 0.049473938
0.04180019 0.0039884802 0.049473938
0.041875791 0.0039884802 0.049473938
0.0085868202 0.00079769996 0.0098947901
0.0086019402 0.00079769996 0.0098947901
0.0086170603 0.00079769996 0.0098947901
0.0086321803 0.00079769996 0.0098947901
0.0086473003 0.00079769996 0.0098947901
0.0086624203 0.00079769996 0.0098947901
0.0086775394 0.00079769996 0.0098947901
0.0086926501 0.00079769996 0.0098947901
0.0087077701 0.00079769996 0.0098947901
0.0087228902 0.00079769996 0.0098947901
0.0087380102 0.00079769996 0.0098947901
0.0087531302 0.00079769996 0.0098947901
0.0087682493 0.00079769996 0.0098947901
0.0087833703 0.00079769996 0.0098947901
0.0087984903 0.00079769996 0.0098947901
0.0088136103 0.00079769996 0.0098947901
0.0088287303 0.00079769996 0.0098947901
0.0088438401 0.00079769996 0.0098947901
0.0088589601 0.00079769996 0.0098947901
0.0088740801 0.00079769996 0.0098947901
0.0088892002 0.00079769996 0.0098947901
0.0089043202 0.00079769996 0.0098947901
0.0089194402 0.00079769996 0.0098947901
0.0089345602 0.00079769996 0.0098947901
0.0089496793 0.00079769996 0.0098947901
0.0089648003 0.00079769996 0.0098947901
0.0089799203 0.00079769996 0.0098947901
0.0089950301 0.00079769996 0.0098947901
0.0090101501 0.00079769996 0.0098947901
0.0090252701 0.00079769996 0.0098947901
0.0090403901 0.00079769996 0.0098947901
0.0090555102 0.00079769996 0.0098947901
0.0090706302 0.00079769996 0.0098947901
0.0090857502 0.00079769996 0.0098947901
0.0091008702 0.00079769996 0.0098947901
0.0091159903 0.00079769996 0.0098947901
0.0091311 0.00079769996 0.0098947901
0.0091462201 0.00079769996 0.0098947901
0.0091613401 0.00079769996 0.0098947901
0.0091764601 0.00079769996 0.0098947901
0.0091915801 0.00079769996 0.0098947901
