# .PCD v0.7 - Point Cloud Data file format
VERSION 0.7
FIELDS x y z rgb
SIZE 4 4 4 4
TYPE F F F F
COUNT 1 1 1 1
WIDTH 1333
HEIGHT 1
VIEWPOINT 0 0 0 1 0 0 0
POINTS 1333
DATA ascii
-3.8597789 -0.168005 -5.0526581 0
-3.951575 -0.171657 -5.162498 0
-4.1394391 -0.17946 -5.3971581 0
-4.147686 -0.17946 -5.3971581 0
-4.1559319 -0.17946 -5.3971581 0
-4.0716419 -0.17547201 -5.2772212 0
-3.9910159 -0.171657 -5.162498 0
-3.998904 -0.171657 -5.162498 0
-3.921541 -0.168005 -5.0526581 0
-3.8474021 -0.164505 -4.9473939 0
-3.8549621 -0.164505 -4.9473939 0
-3.8625209 -0.164505 -4.9473939 0
-3.87008 -0.164505 -4.9473939 0
-3.87764 -0.164505 -4.9473939 0
-3.8852 -0.164505 -4.9473939 0
-3.8927591 -0.164505 -4.9473939 0
-3.983304 -0.168005 -5.0526581 0
-0.79971802 -0.032901 -0.98947901 0
-0.80123001 -0.032901 -0.98947901 0
-0.802742 -0.032901 -0.98947901 0
-0.804254 -0.032901 -0.98947901 0
-0.80576599 -0.032901 -0.98947901 0
-1.094614 -0.044611 -1.341666 0
-0.81332499 -0.032901 -0.98947901 0
-0.81483698 -0.032901 -0.98947901 0
-0.81634903 -0.032901 -0.98947901 0
-0.81786102 -0.032901 -0.98947901 0
-0.81937301 -0.032901 -0.98947901 0
-0.820885 -0.032901 -0.98947901 0
-0.82239699 -0.032901 -0.98947901 0
-0.82390898 -0.032901 -0.98947901 0
-0.82542098 -0.032901 -0.98947901 0
-0.82693201 -0.032901 -0.98947901 0
-0.828444 -0.032901 -0.98947901 0
-1.1253639 -0.044611 -1.341666 0
-1.1338201 -0.044865001 -1.3492889 0
-1.129464 -0.044611 -1.341666 0
-0.83449203 -0.032901 -0.98947901 0
-0.83600402 -0.032901 -0.98947901 0
-0.83751601 -0.032901 -0.98947901 0
-0.839028 -0.032901 -0.98947901 0
-0.84053999 -0.032901 -0.98947901 0
-1.148252 -0.044865001 -1.3492889 0
-0.84809899 -0.032901 -0.98947901 0
-0.84961098 -0.032901 -0.98947901 0
-0.85112298 -0.032901 -0.98947901 0
-0.85263503 -0.032901 -0.98947901 0
-0.85414702 -0.032901 -0.98947901 0
-0.85565799 -0.032901 -0.98947901 0
-0.85716999 -0.032901 -0.98947901 0
-0.85868198 -0.032901 -0.98947901 0
-0.86019403 -0.032901 -0.98947901 0
-0.86170602 -0.032901 -0.98947901 0
-0.86473 -0.032901 -0.98947901 0
-0.86624199 -0.032901 -0.98947901 0
-0.86775398 -0.032901 -0.98947901 0
-0.86926502 -0.032901 -0.98947901 0
-0.87077701 -0.032901 -0.98947901 0
-0.872289 -0.032901 -0.98947901 0
-0.87380099 -0.032901 -0.98947901 0
-0.87531298 -0.032901 -0.98947901 0
-0.87682498 -0.032901 -0.98947901 0
-0.87833703 -0.032901 -0.98947901 0
-0.87984902 -0.032901 -0.98947901 0
-0.88136101 -0.032901 -0.98947901 0
-0.882873 -0.032901 -0.98947901 0
-0.88438398 -0.032901 -0.98947901 0
-0.88589603 -0.032901 -0.98947901 0
-0.88740802 -0.032901 -0.98947901 0
-0.88892001 -0.032901 -0.98947901 0
-0.890432 -0.032901 -0.98947901 0
-0.89194399 -0.032901 -0.98947901 0
-0.89345598 -0.032901 -0.98947901 0
-0.89496797 -0.032901 -0.98947901 0
-0.89648002 -0.032901 -0.98947901 0
-0.89799201 -0.032901 -0.98947901 0
-0.89950299 -0.032901 -0.98947901 0
-0.90101498 -0.032901 -0.98947901 0
-0.90252697 -0.032901 -0.98947901 0
-0.90403903 -0.032901 -0.98947901 0
-0.90555102 -0.032901 -0.98947901 0
-0.90706301 -0.032901 -0.98947901 0
-0.908575 -0.032901 -0.98947901 0
-0.91008699 -0.032901 -0.98947901 0
-0.91159898 -0.032901 -0.98947901 0
-0.91311002 -0.032901 -0.98947901 0
-0.91462201 -0.032901 -0.98947901 0
-3.6044631 -0.129446 -3.8930321 0
-3.6104109 -0.129446 -3.8930321 0
-3.6163599 -0.129446 -3.8930321 0
-3.622308 -0.129446 -3.8930321 0
-3.7512479 -0.133834 -4.0249991 0
-4.1827641 -0.148985 -4.480659 0
-4.353909 -0.154828 -4.6563711 0
-4.3610239 -0.154828 -4.6563711 0
-4.455502 -0.157924 -4.7494988 0
-4.462759 -0.157924 -4.7494988 0
-4.470016 -0.157924 -4.7494988 0
-4.477273 -0.157924 -4.7494988 0
-4.5760512 -0.161147 -4.846427 0
-4.4037132 -0.154828 -4.6563711 0
-4.4990439 -0.157924 -4.7494988 0
-4.417942 -0.154828 -4.6563711 0
-4.5135579 -0.157924 -4.7494988 0
-4.5208149 -0.157924 -4.7494988 0
-4.5280719 -0.157924 -4.7494988 0
-4.453516 -0.154828 -4.6563711 0
-0.179445 -0.043016002 -1.236849 0
-0.181334 -0.043016002 -1.236849 0
-0.182275 -0.042792998 -1.23044 0
-0.184155 -0.042792998 -1.23044 0
-0.18603501 -0.042792998 -1.23044 0
-0.187915 -0.042792998 -1.23044 0
-0.18881699 -0.042573001 -1.224098 0
-0.190687 -0.042573001 -1.224098 0
-0.21576101 -0.042353999 -1.21782 0
-0.217621 -0.042353999 -1.21782 0
-0.219482 -0.042353999 -1.21782 0
-0.221343 -0.042353999 -1.21782 0
-0.223204 -0.042353999 -1.21782 0
-0.22506499 -0.042353999 -1.21782 0
-0.228095 -0.042573001 -1.224098 0
-0.229965 -0.042573001 -1.224098 0
-0.23183601 -0.042573001 -1.224098 0
-0.233706 -0.042573001 -1.224098 0
-0.235577 -0.042573001 -1.224098 0
-0.23744699 -0.042573001 -1.224098 0
-0.239317 -0.042573001 -1.224098 0
-0.241188 -0.042573001 -1.224098 0
-0.243058 -0.042573001 -1.224098 0
-0.246198 -0.042792998 -1.23044 0
-0.248078 -0.042792998 -1.23044 0
-0.248669 -0.042573001 -1.224098 0
-0.25053999 -0.042573001 -1.224098 0
-0.25371799 -0.042792998 -1.23044 0
-0.264489 -0.043016002 -1.236849 0
-0.27015799 -0.043016002 -1.236849 0
-0.270639 -0.042792998 -1.23044 0
-0.27111399 -0.042573001 -1.224098 0
-0.272984 -0.042573001 -1.224098 0
-0.276279 -0.042792998 -1.23044 0
-0.27672499 -0.042573001 -1.224098 0
-0.27859601 -0.042573001 -1.224098 0
-0.28046599 -0.042573001 -1.224098 0
-0.282336 -0.042573001 -1.224098 0
-0.282749 -0.042353999 -1.21782 0
-0.28461 -0.042353999 -1.21782 0
-0.297968 -0.042137999 -1.211607 0
-0.29982001 -0.042137999 -1.211607 0
-0.301671 -0.042137999 -1.211607 0
-0.30352199 -0.042137999 -1.211607 0
-0.305374 -0.042137999 -1.211607 0
-0.30880001 -0.042353999 -1.21782 0
-0.312262 -0.042573001 -1.224098 0
-0.31413299 -0.042573001 -1.224098 0
-0.31600299 -0.042573001 -1.224098 0
-0.31787401 -0.042573001 -1.224098 0
-0.323075 -0.043016002 -1.236849 0
-0.324965 -0.043016002 -1.236849 0
-0.32685399 -0.043016002 -1.236849 0
-0.32874399 -0.043016002 -1.236849 0
-0.330634 -0.043016002 -1.236849 0
-0.36276099 -0.043469001 -1.249868 0
-0.36467099 -0.043469001 -1.249868 0
-0.36851999 -0.043699 -1.2564811 0
-0.37044001 -0.043699 -1.2564811 0
-0.37235999 -0.043699 -1.2564811 0
-0.37428001 -0.043699 -1.2564811 0
-0.37619999 -0.043699 -1.2564811 0
-0.37811899 -0.043699 -1.2564811 0
-0.378039 -0.043469001 -1.249868 0
-0.379949 -0.043469001 -1.249868 0
-0.381859 -0.043469001 -1.249868 0
-0.38376799 -0.043469001 -1.249868 0
-0.38567799 -0.043469001 -1.249868 0
-0.38758799 -0.043469001 -1.249868 0
-0.389498 -0.043469001 -1.249868 0
-0.39140701 -0.043469001 -1.249868 0
-0.39331701 -0.043469001 -1.249868 0
-0.39522699 -0.043469001 -1.249868 0
-0.39713699 -0.043469001 -1.249868 0
-0.399046 -0.043469001 -1.249868 0
-0.400956 -0.043469001 -1.249868 0
-0.40286601 -0.043469001 -1.249868 0
-0.40691701 -0.043699 -1.2564811 0
-0.40883699 -0.043699 -1.2564811 0
-0.41075701 -0.043699 -1.2564811 0
-0.41267699 -0.043699 -1.2564811 0
-0.41903099 -0.044165999 -1.269919 0
-0.42097101 -0.044165999 -1.269919 0
-0.42485201 -0.044165999 -1.269919 0
-0.33405501 -0.034412999 -0.98947901 0
-0.33556601 -0.034412999 -0.98947901 0
-0.33707801 -0.034412999 -0.98947901 0
-0.33859 -0.034412999 -0.98947901 0
-0.34010199 -0.034412999 -0.98947901 0
-0.34161401 -0.034412999 -0.98947901 0
-0.343126 -0.034412999 -0.98947901 0
-0.34463799 -0.034412999 -0.98947901 0
-0.34615001 -0.034412999 -0.98947901 0
-0.347662 -0.034412999 -0.98947901 0
-0.34917301 -0.034412999 -0.98947901 0
-0.350685 -0.034412999 -0.98947901 0
-1.594856 -0.15583199 -4.480659 0
-1.6645139 -0.161943 -4.6563711 0
-1.671628 -0.161943 -4.6563711 0
-1.747263 -0.16855299 -4.846427 0
-1.685858 -0.161943 -4.6563711 0
-1.692973 -0.161943 -4.6563711 0
-1.700088 -0.161943 -4.6563711 0
-1.776884 -0.16855299 -4.846427 0
-1.784289 -0.16855299 -4.846427 0
-1.829022 -0.17206401 -4.9473939 0
-1.836581 -0.17206401 -4.9473939 0
-1.844141 -0.17206401 -4.9473939 0
-1.8516999 -0.17206401 -4.9473939 0
-1.85926 -0.17206401 -4.9473939 0
-1.866819 -0.17206401 -4.9473939 0
-1.874378 -0.17206401 -4.9473939 0
-1.881938 -0.17206401 -4.9473939 0
-1.889497 -0.17206401 -4.9473939 0
-1.8970571 -0.17206401 -4.9473939 0
-1.904616 -0.17206401 -4.9473939 0
-1.912176 -0.17206401 -4.9473939 0
-1.919735 -0.17206401 -4.9473939 0
-0.403602 -0.034412999 -0.98947901 0
-1.995345 -0.16518199 -4.7494988 0
-2.0434721 -0.16855299 -4.846427 0
-2.0098591 -0.16518199 -4.7494988 0
-2.0582819 -0.16855299 -4.846427 0
-2.0656869 -0.16855299 -4.846427 0
-2.073092 -0.16855299 -4.846427 0
-2.080498 -0.16855299 -4.846427 0
-2.087903 -0.16855299 -4.846427 0
-2.0534019 -0.16518199 -4.7494988 0
-2.1027131 -0.16855299 -4.846427 0
-2.0679159 -0.16518199 -4.7494988 0
-2.0751729 -0.16518199 -4.7494988 0
-2.0415981 -0.161943 -4.6563711 0
-2.0896871 -0.16518199 -4.7494988 0
-2.0558281 -0.161943 -4.6563711 0
-2.062943 -0.161943 -4.6563711 0
-2.0302491 -0.15882801 -4.5668259 0
-2.077172 -0.161943 -4.6563711 0
-2.044205 -0.15882801 -4.5668259 0
-2.012481 -0.15583199 -4.480659 0
-2.0193269 -0.15583199 -4.480659 0
-2.0651391 -0.15882801 -4.5668259 0
-2.03302 -0.15583199 -4.480659 0
-2.039866 -0.15583199 -4.480659 0
-2.0467131 -0.15583199 -4.480659 0
-2.09305 -0.15882801 -4.5668259 0
-2.141206 -0.161943 -4.6563711 0
-2.191287 -0.16518199 -4.7494988 0
-0.59143603 -0.043016002 -1.236849 0
-0.59332597 -0.043016002 -1.236849 0
-0.59521598 -0.043016002 -1.236849 0
-0.59710598 -0.043016002 -1.236849 0
-11.609572 -0.82590801 -23.747494 0
-9.7048817 -0.68825698 -19.789577 0
-9.7351189 -0.68825698 -19.789577 0
-9.765357 -0.68825698 -19.789577 0
-9.7955952 -0.68825698 -19.789577 0
-9.0699997 -0.63531399 -18.267303 0
-9.8560715 -0.68825698 -19.789577 0
-9.8863087 -0.68825698 -19.789577 0
-10.818051 -0.75082499 -21.588631 0
-13.26238 -0.91767502 -26.386105 0
-13.895558 -0.82590801 -23.747494 0
-13.931844 -0.82590801 -23.747494 0
-15.520144 -0.91767502 -26.386105 0
-0.825261 -0.042792998 -1.23044 0
-0.822878 -0.042573001 -1.224098 0
-0.82902199 -0.042792998 -1.23044 0
-0.83090198 -0.042792998 -1.23044 0
-0.84150201 -0.043241002 -1.243324 0
-0.86144203 -0.044165999 -1.269919 0
-2.639189 -0.133211 -3.830241 0
-2.645041 -0.133211 -3.830241 0
-2.6508939 -0.133211 -3.830241 0
-2.7453051 -0.137651 -3.957916 0
-3.0014751 -0.15016501 -4.3177261 0
-3.244 -0.161943 -4.6563711 0
-3.3161371 -0.16518199 -4.7494988 0
-3.3912179 -0.16855299 -4.846427 0
-3.4694281 -0.17206401 -4.9473939 0
-3.550966 -0.175725 -5.0526581 0
-3.636049 -0.179545 -5.162498 0
-3.7249141 -0.18353499 -5.2772212 0
-3.651825 -0.179545 -5.162498 0
-3.7410409 -0.18353499 -5.2772212 0
-3.6676021 -0.179545 -5.162498 0
-3.6754899 -0.179545 -5.162498 0
-3.683378 -0.179545 -5.162498 0
-3.597939 -0.17206401 -4.9473939 0
-3.605499 -0.17206401 -4.9473939 0
-3.6130581 -0.17206401 -4.9473939 0
-3.6206181 -0.17206401 -4.9473939 0
-3.6281769 -0.17206401 -4.9473939 0
-3.6357369 -0.17206401 -4.9473939 0
-3.643296 -0.17206401 -4.9473939 0
-3.650856 -0.17206401 -4.9473939 0
-3.6584151 -0.17206401 -4.9473939 0
-3.6659751 -0.17206401 -4.9473939 0
-3.6735339 -0.17206401 -4.9473939 0
-3.6810939 -0.17206401 -4.9473939 0
-3.688653 -0.17206401 -4.9473939 0
-3.696213 -0.17206401 -4.9473939 0
-3.7037721 -0.17206401 -4.9473939 0
-3.7113321 -0.17206401 -4.9473939 0
-3.7188909 -0.17206401 -4.9473939 0
-3.72645 -0.17206401 -4.9473939 0
-3.73401 -0.17206401 -4.9473939 0
-3.74157 -0.17206401 -4.9473939 0
-3.7491291 -0.17206401 -4.9473939 0
-3.7566881 -0.17206401 -4.9473939 0
-3.7642479 -0.17206401 -4.9473939 0
-3.771807 -0.17206401 -4.9473939 0
-3.8597789 -0.175725 -5.0526581 0
-3.951575 -0.179545 -5.162498 0
-4.047451 -0.18353499 -5.2772212 0
-4.147686 -0.18770599 -5.3971581 0
-4.0635781 -0.18353499 -5.2772212 0
-3.9831281 -0.179545 -5.162498 0
-3.9910159 -0.179545 -5.162498 0
-3.832283 -0.17206401 -4.9473939 0
-3.839843 -0.17206401 -4.9473939 0
-3.8474021 -0.17206401 -4.9473939 0
-3.8549621 -0.17206401 -4.9473939 0
-3.8625209 -0.17206401 -4.9473939 0
-3.9524231 -0.175725 -5.0526581 0
-3.9601431 -0.175725 -5.0526581 0
-3.9678631 -0.175725 -5.0526581 0
-3.975584 -0.175725 -5.0526581 0
-4.1603398 -0.18353499 -5.2772212 0
-0.80123001 -0.034412999 -0.98947901 0
-0.802742 -0.034412999 -0.98947901 0
-0.804254 -0.034412999 -0.98947901 0
-0.80576599 -0.034412999 -0.98947901 0
-1.094614 -0.046661001 -1.341666 0
-0.81332499 -0.034412999 -0.98947901 0
-0.81483698 -0.034412999 -0.98947901 0
-0.81634903 -0.034412999 -0.98947901 0
-0.81786102 -0.034412999 -0.98947901 0
-0.81937301 -0.034412999 -0.98947901 0
-0.820885 -0.034412999 -0.98947901 0
-0.82239699 -0.034412999 -0.98947901 0
-0.82390898 -0.034412999 -0.98947901 0
-0.82542098 -0.034412999 -0.98947901 0
-0.82693201 -0.034412999 -0.98947901 0
-0.828444 -0.034412999 -0.98947901 0
-0.829956 -0.034412999 -0.98947901 0
-0.83146799 -0.034412999 -0.98947901 0
-0.83297998 -0.034412999 -0.98947901 0
-0.83449203 -0.034412999 -0.98947901 0
-0.83600402 -0.034412999 -0.98947901 0
-0.83751601 -0.034412999 -0.98947901 0
-0.839028 -0.034412999 -0.98947901 0
-0.84053999 -0.034412999 -0.98947901 0
-0.846587 -0.034412999 -0.98947901 0
-0.84809899 -0.034412999 -0.98947901 0
-0.84961098 -0.034412999 -0.98947901 0
-0.85112298 -0.034412999 -0.98947901 0
-0.85263503 -0.034412999 -0.98947901 0
-0.85414702 -0.034412999 -0.98947901 0
-0.85565799 -0.034412999 -0.98947901 0
-0.85716999 -0.034412999 -0.98947901 0
-0.85868198 -0.034412999 -0.98947901 0
-0.86019403 -0.034412999 -0.98947901 0
-0.86624199 -0.034412999 -0.98947901 0
-0.86775398 -0.034412999 -0.98947901 0
-0.86926502 -0.034412999 -0.98947901 0
-0.87077701 -0.034412999 -0.98947901 0
-0.872289 -0.034412999 -0.98947901 0
-0.87380099 -0.034412999 -0.98947901 0
-0.87531298 -0.034412999 -0.98947901 0
-0.87682498 -0.034412999 -0.98947901 0
-0.87833703 -0.034412999 -0.98947901 0
-0.87984902 -0.034412999 -0.98947901 0
-0.88136101 -0.034412999 -0.98947901 0
-0.882873 -0.034412999 -0.98947901 0
-0.88438398 -0.034412999 -0.98947901 0
-0.88589603 -0.034412999 -0.98947901 0
-0.88740802 -0.034412999 -0.98947901 0
-0.88892001 -0.034412999 -0.98947901 0
-0.890432 -0.034412999 -0.98947901 0
-0.89194399 -0.034412999 -0.98947901 0
-0.89345598 -0.034412999 -0.98947901 0
-0.89496797 -0.034412999 -0.98947901 0
-0.89648002 -0.034412999 -0.98947901 0
-0.89799201 -0.034412999 -0.98947901 0
-0.89950299 -0.034412999 -0.98947901 0
-0.90101498 -0.034412999 -0.98947901 0
-0.90252697 -0.034412999 -0.98947901 0
-0.90403903 -0.034412999 -0.98947901 0
-0.90555102 -0.034412999 -0.98947901 0
-0.90706301 -0.034412999 -0.98947901 0
-0.908575 -0.034412999 -0.98947901 0
-0.91008699 -0.034412999 -0.98947901 0
-0.91159898 -0.034412999 -0.98947901 0
-0.91311002 -0.034412999 -0.98947901 0
-0.91462201 -0.034412999 -0.98947901 0
-3.664537 -0.137651 -3.957916 0
-3.6705849 -0.137651 -3.957916 0
-3.6766319 -0.137651 -3.957916 0
-3.7450981 -0.139984 -4.0249991 0
-3.8159249 -0.142398 -4.0943961 0
-4.1053061 -0.152946 -4.3976841 0
-4.18961 -0.15583199 -4.480659 0
-4.1187449 -0.152946 -4.3976841 0
-4.3681378 -0.161943 -4.6563711 0
-4.3752532 -0.161943 -4.6563711 0
-4.3823681 -0.161943 -4.6563711 0
-4.389483 -0.161943 -4.6563711 0
-4.3965979 -0.161943 -4.6563711 0
-4.4037132 -0.161943 -4.6563711 0
-4.4108272 -0.161943 -4.6563711 0
-4.417942 -0.161943 -4.6563711 0
-4.5135579 -0.16518199 -4.7494988 0
-4.5208149 -0.16518199 -4.7494988 0
-4.5280719 -0.16518199 -4.7494988 0
-4.453516 -0.161943 -4.6563711 0
-4.169208 -0.15016501 -4.3177261 0
-0.179445 -0.044906002 -1.236849 0
-0.181334 -0.044906002 -1.236849 0
-0.182275 -0.044673 -1.23044 0
-0.184155 -0.044673 -1.23044 0
-0.187004 -0.044906002 -1.236849 0
-0.188894 -0.044906002 -1.236849 0
-0.189795 -0.044673 -1.23044 0
-0.20752101 -0.044443 -1.224098 0
-0.215002 -0.044443 -1.224098 0
-0.21576101 -0.044215001 -1.21782 0
-0.217621 -0.044215001 -1.21782 0
-0.219482 -0.044215001 -1.21782 0
-0.221343 -0.044215001 -1.21782 0
-0.223204 -0.044215001 -1.21782 0
-0.22506499 -0.044215001 -1.21782 0
-0.228095 -0.044443 -1.224098 0
-0.229965 -0.044443 -1.224098 0
-0.23183601 -0.044443 -1.224098 0
-0.233706 -0.044443 -1.224098 0
-0.235577 -0.044443 -1.224098 0
-0.23744699 -0.044443 -1.224098 0
-0.239317 -0.044443 -1.224098 0
-0.241188 -0.044443 -1.224098 0
-0.243058 -0.044443 -1.224098 0
-0.246198 -0.044673 -1.23044 0
-0.248078 -0.044673 -1.23044 0
-0.248669 -0.044443 -1.224098 0
-0.25053999 -0.044443 -1.224098 0
-0.25371799 -0.044673 -1.23044 0
-0.25559801 -0.044673 -1.23044 0
-0.257478 -0.044673 -1.23044 0
-0.25935799 -0.044673 -1.23044 0
-0.26123801 -0.044673 -1.23044 0
-0.263118 -0.044673 -1.23044 0
-0.270639 -0.044673 -1.23044 0
-0.27111399 -0.044443 -1.224098 0
-0.272984 -0.044443 -1.224098 0
-0.27485499 -0.044443 -1.224098 0
-0.27672499 -0.044443 -1.224098 0
-0.27716699 -0.044215001 -1.21782 0
-0.279028 -0.044215001 -1.21782 0
-0.28088799 -0.044215001 -1.21782 0
-0.282749 -0.044215001 -1.21782 0
-0.28461 -0.044215001 -1.21782 0
-0.301357 -0.044215001 -1.21782 0
-0.30321801 -0.044215001 -1.21782 0
-0.30352199 -0.043988999 -1.211607 0
-0.305374 -0.043988999 -1.211607 0
-0.30880001 -0.044215001 -1.21782 0
-0.312262 -0.044443 -1.224098 0
-0.31575999 -0.044673 -1.23044 0
-0.31764099 -0.044673 -1.23044 0
-0.31952101 -0.044673 -1.23044 0
-0.323075 -0.044906002 -1.236849 0
-0.324965 -0.044906002 -1.236849 0
-0.32685399 -0.044906002 -1.236849 0
-0.32874399 -0.044906002 -1.236849 0
-0.330634 -0.044906002 -1.236849 0
-0.332524 -0.044906002 -1.236849 0
-0.36660001 -0.045619 -1.2564811 0
-0.37044001 -0.045619 -1.2564811 0
-0.37428001 -0.045619 -1.2564811 0
-0.37619999 -0.045619 -1.2564811 0
-0.37811899 -0.045619 -1.2564811 0
-0.378039 -0.045379002 -1.249868 0
-0.379949 -0.045379002 -1.249868 0
-0.381859 -0.045379002 -1.249868 0
-0.38376799 -0.045379002 -1.249868 0
-0.38567799 -0.045379002 -1.249868 0
-0.38758799 -0.045379002 -1.249868 0
-0.389498 -0.045379002 -1.249868 0
-0.39140701 -0.045379002 -1.249868 0
-0.39331701 -0.045379002 -1.249868 0
-0.39522699 -0.045379002 -1.249868 0
-0.39713699 -0.045379002 -1.249868 0
-0.399046 -0.045379002 -1.249868 0
-0.400956 -0.045379002 -1.249868 0
-0.40286601 -0.045379002 -1.249868 0
-0.40691701 -0.045619 -1.2564811 0
-0.40883699 -0.045619 -1.2564811 0
-0.41075701 -0.045619 -1.2564811 0
-0.41267699 -0.045619 -1.2564811 0
-0.41680199 -0.045860998 -1.263165 0
-0.41873199 -0.045860998 -1.263165 0
-0.422912 -0.046107002 -1.269919 0
-0.42485201 -0.046107002 -1.269919 0
-0.33556601 -0.035925001 -0.98947901 0
-0.33707801 -0.035925001 -0.98947901 0
-0.33859 -0.035925001 -0.98947901 0
-0.34010199 -0.035925001 -0.98947901 0
-0.34161401 -0.035925001 -0.98947901 0
-0.343126 -0.035925001 -0.98947901 0
-0.34463799 -0.035925001 -0.98947901 0
-0.34615001 -0.035925001 -0.98947901 0
-0.347662 -0.035925001 -0.98947901 0
-0.34917301 -0.035925001 -0.98947901 0
-0.350685 -0.035925001 -0.98947901 0
-0.35219699 -0.035925001 -0.98947901 0
-0.35370901 -0.035925001 -0.98947901 0
-0.355221 -0.035925001 -0.98947901 0
-0.35673299 -0.035925001 -0.98947901 0
-0.35824499 -0.035925001 -0.98947901 0
-0.35975701 -0.035925001 -0.98947901 0
-0.361269 -0.035925001 -0.98947901 0
-0.36278099 -0.035925001 -0.98947901 0
-0.364292 -0.035925001 -0.98947901 0
-1.721432 -0.169058 -4.6563711 0
-1.7991 -0.17595799 -4.846427 0
-1.844141 -0.17962401 -4.9473939 0
-1.8516999 -0.17962401 -4.9473939 0
-1.85926 -0.17962401 -4.9473939 0
-1.866819 -0.17962401 -4.9473939 0
-1.874378 -0.17962401 -4.9473939 0
-1.881938 -0.17962401 -4.9473939 0
-1.8509361 -0.17595799 -4.846427 0
-1.858341 -0.17595799 -4.846427 0
-1.904616 -0.17962401 -4.9473939 0
-1.912176 -0.17962401 -4.9473939 0
-1.919735 -0.17962401 -4.9473939 0
-1.980831 -0.17243899 -4.7494988 0
-1.988088 -0.17243899 -4.7494988 0
-1.995345 -0.17243899 -4.7494988 0
-2.0026021 -0.17243899 -4.7494988 0
-2.0098591 -0.17243899 -4.7494988 0
-2.0582819 -0.17595799 -4.846427 0
-2.0243731 -0.17243899 -4.7494988 0
-2.073092 -0.17595799 -4.846427 0
-2.080498 -0.17595799 -4.846427 0
-2.046145 -0.17243899 -4.7494988 0
-2.0534019 -0.17243899 -4.7494988 0
-2.0606589 -0.17243899 -4.7494988 0
-2.027369 -0.169058 -4.6563711 0
-2.034483 -0.169058 -4.6563711 0
-2.0415981 -0.169058 -4.6563711 0
-2.048713 -0.169058 -4.6563711 0
-2.0558281 -0.169058 -4.6563711 0
-2.0232711 -0.165806 -4.5668259 0
-2.0302491 -0.165806 -4.5668259 0
-2.0372269 -0.165806 -4.5668259 0
-2.044205 -0.165806 -4.5668259 0
-2.012481 -0.162678 -4.480659 0
-2.0193269 -0.162678 -4.480659 0
-2.0261741 -0.162678 -4.480659 0
-2.03302 -0.162678 -4.480659 0
-2.0020909 -0.159665 -4.3976841 0
-1.903084 -0.151262 -4.1662269 0
-1.943547 -0.153963 -4.240624 0
-2.100029 -0.165806 -4.5668259 0
-0.58765602 -0.044906002 -1.236849 0
-0.58954602 -0.044906002 -1.236849 0
-0.59143603 -0.044906002 -1.236849 0
-11.609572 -0.86219299 -23.747494 0
-9.7048817 -0.71849501 -19.789577 0
-9.7351189 -0.71849501 -19.789577 0
-9.765357 -0.71849501 -19.789577 0
-9.7955952 -0.71849501 -19.789577 0
-9.8258333 -0.71849501 -19.789577 0
-10.752077 -0.78381199 -21.588631 0
-10.785064 -0.78381199 -21.588631 0
-13.222062 -0.95799297 -26.386105 0
-0.82338101 -0.044673 -1.23044 0
-0.825261 -0.044673 -1.23044 0
-0.822878 -0.044443 -1.224098 0
-0.82902199 -0.044673 -1.23044 0
-0.83522898 -0.044906002 -1.236849 0
-0.850407 -0.045619 -1.2564811 0
-0.86144203 -0.046107002 -1.269919 0
-2.591537 -0.136856 -3.769444 0
-2.597297 -0.136856 -3.769444 0
-2.645041 -0.139063 -3.830241 0
-2.6508939 -0.139063 -3.830241 0
-2.7453051 -0.14369901 -3.957916 0
-2.7979851 -0.146134 -4.0249991 0
-3.0637779 -0.159665 -4.3976841 0
-3.2511151 -0.169058 -4.6563711 0
-3.3233941 -0.17243899 -4.7494988 0
-3.4694281 -0.17962401 -4.9473939 0
-3.550966 -0.18344501 -5.0526581 0
-3.636049 -0.187433 -5.162498 0
-3.7249141 -0.191599 -5.2772212 0
-3.7329769 -0.191599 -5.2772212 0
-3.59038 -0.17962401 -4.9473939 0
-3.597939 -0.17962401 -4.9473939 0
-3.605499 -0.17962401 -4.9473939 0
-3.6130581 -0.17962401 -4.9473939 0
-3.6206181 -0.17962401 -4.9473939 0
-3.6281769 -0.17962401 -4.9473939 0
-3.6357369 -0.17962401 -4.9473939 0
-3.643296 -0.17962401 -4.9473939 0
-3.650856 -0.17962401 -4.9473939 0
-3.6584151 -0.17962401 -4.9473939 0
-3.6659751 -0.17962401 -4.9473939 0
-3.6735339 -0.17962401 -4.9473939 0
-3.6810939 -0.17962401 -4.9473939 0
-3.688653 -0.17962401 -4.9473939 0
-3.696213 -0.17962401 -4.9473939 0
-3.7037721 -0.17962401 -4.9473939 0
-3.7113321 -0.17962401 -4.9473939 0
-3.7188909 -0.17962401 -4.9473939 0
-3.72645 -0.17962401 -4.9473939 0
-3.73401 -0.17962401 -4.9473939 0
-3.74157 -0.17962401 -4.9473939 0
-3.7491291 -0.17962401 -4.9473939 0
-3.7566881 -0.17962401 -4.9473939 0
-3.7642479 -0.17962401 -4.9473939 0
-3.771807 -0.17962401 -4.9473939 0
-3.8597789 -0.18344501 -5.0526581 0
-3.951575 -0.187433 -5.162498 0
-4.047451 -0.191599 -5.2772212 0
-4.0555148 -0.191599 -5.2772212 0
-4.0635781 -0.191599 -5.2772212 0
-3.9831281 -0.187433 -5.162498 0
-3.906101 -0.18344501 -5.0526581 0
-3.832283 -0.17962401 -4.9473939 0
-3.839843 -0.17962401 -4.9473939 0
-3.8474021 -0.17962401 -4.9473939 0
-3.8549621 -0.17962401 -4.9473939 0
-3.8625209 -0.17962401 -4.9473939 0
-3.9524231 -0.18344501 -5.0526581 0
-3.9601431 -0.18344501 -5.0526581 0
-3.9678631 -0.18344501 -5.0526581 0
-4.0620089 -0.187433 -5.162498 0
-4.1603398 -0.191599 -5.2772212 0
-4.1684031 -0.191599 -5.2772212 0
-1.092564 -0.048710998 -1.341666 0
-0.81332499 -0.035925001 -0.98947901 0
-0.81483698 -0.035925001 -0.98947901 0
-0.81634903 -0.035925001 -0.98947901 0
-0.81786102 -0.035925001 -0.98947901 0
-0.81937301 -0.035925001 -0.98947901 0
-0.820885 -0.035925001 -0.98947901 0
-0.82239699 -0.035925001 -0.98947901 0
-0.82390898 -0.035925001 -0.98947901 0
-0.82542098 -0.035925001 -0.98947901 0
-0.82693201 -0.035925001 -0.98947901 0
-0.828444 -0.035925001 -0.98947901 0
-0.829956 -0.035925001 -0.98947901 0
-0.83146799 -0.035925001 -0.98947901 0
-0.83297998 -0.035925001 -0.98947901 0
-0.83449203 -0.035925001 -0.98947901 0
-0.83600402 -0.035925001 -0.98947901 0
-0.83751601 -0.035925001 -0.98947901 0
-0.839028 -0.035925001 -0.98947901 0
-0.84053999 -0.035925001 -0.98947901 0
-0.84205103 -0.035925001 -0.98947901 0
-0.846587 -0.035925001 -0.98947901 0
-0.84809899 -0.035925001 -0.98947901 0
-0.84961098 -0.035925001 -0.98947901 0
-0.85112298 -0.035925001 -0.98947901 0
-0.85263503 -0.035925001 -0.98947901 0
-0.85414702 -0.035925001 -0.98947901 0
-0.85565799 -0.035925001 -0.98947901 0
-0.85716999 -0.035925001 -0.98947901 0
-0.85868198 -0.035925001 -0.98947901 0
-0.86019403 -0.035925001 -0.98947901 0
-0.86170602 -0.035925001 -0.98947901 0
-0.86473 -0.035925001 -0.98947901 0
-0.86624199 -0.035925001 -0.98947901 0
-0.86775398 -0.035925001 -0.98947901 0
-0.86926502 -0.035925001 -0.98947901 0
-0.87077701 -0.035925001 -0.98947901 0
-0.872289 -0.035925001 -0.98947901 0
-0.87380099 -0.035925001 -0.98947901 0
-0.87531298 -0.035925001 -0.98947901 0
-0.87682498 -0.035925001 -0.98947901 0
-0.87833703 -0.035925001 -0.98947901 0
-0.87984902 -0.035925001 -0.98947901 0
-0.88136101 -0.035925001 -0.98947901 0
-0.882873 -0.035925001 -0.98947901 0
-0.88438398 -0.035925001 -0.98947901 0
-0.88589603 -0.035925001 -0.98947901 0
-0.88740802 -0.035925001 -0.98947901 0
-0.88892001 -0.035925001 -0.98947901 0
-0.890432 -0.035925001 -0.98947901 0
-0.89194399 -0.035925001 -0.98947901 0
-0.89345598 -0.035925001 -0.98947901 0
-0.89496797 -0.035925001 -0.98947901 0
-0.89648002 -0.035925001 -0.98947901 0
-0.89799201 -0.035925001 -0.98947901 0
-0.89950299 -0.035925001 -0.98947901 0
-0.90101498 -0.035925001 -0.98947901 0
-0.90252697 -0.035925001 -0.98947901 0
-0.90403903 -0.035925001 -0.98947901 0
-0.90555102 -0.035925001 -0.98947901 0
-0.90706301 -0.035925001 -0.98947901 0
-0.908575 -0.035925001 -0.98947901 0
-0.91008699 -0.035925001 -0.98947901 0
-0.91159898 -0.035925001 -0.98947901 0
-0.91311002 -0.035925001 -0.98947901 0
-0.91462201 -0.035925001 -0.98947901 0
-0.916134 -0.035925001 -0.98947901 0
-3.6705849 -0.14369901 -3.957916 0
-3.6766319 -0.14369901 -3.957916 0
-3.809669 -0.148654 -4.0943961 0
-4.1759181 -0.162678 -4.480659 0
-4.1827641 -0.162678 -4.480659 0
-4.1120248 -0.159665 -4.3976841 0
-4.1187449 -0.159665 -4.3976841 0
-4.125464 -0.159665 -4.3976841 0
-4.2101488 -0.162678 -4.480659 0
-4.2169962 -0.162678 -4.480659 0
-4.3050699 -0.165806 -4.5668259 0
-4.312048 -0.165806 -4.5668259 0
-4.4037132 -0.169058 -4.6563711 0
-4.4108272 -0.169058 -4.6563711 0
-4.417942 -0.169058 -4.6563711 0
-4.5135579 -0.17243899 -4.7494988 0
-4.5280719 -0.17243899 -4.7494988 0
-4.5425858 -0.17243899 -4.7494988 0
-4.3265371 -0.162678 -4.480659 0
-0.179445 -0.046796001 -1.236849 0
-0.181334 -0.046796001 -1.236849 0
-0.182275 -0.046553001 -1.23044 0
-0.185114 -0.046796001 -1.236849 0
-0.20565 -0.046312999 -1.224098 0
-0.20752101 -0.046312999 -1.224098 0
-0.209391 -0.046312999 -1.224098 0
-0.210178 -0.046076 -1.21782 0
-0.21313199 -0.046312999 -1.224098 0
-0.2139 -0.046076 -1.21782 0
-0.21576101 -0.046076 -1.21782 0
-0.217621 -0.046076 -1.21782 0
-0.219482 -0.046076 -1.21782 0
-0.221343 -0.046076 -1.21782 0
-0.223204 -0.046076 -1.21782 0
-0.22506499 -0.046076 -1.21782 0
-0.226925 -0.046076 -1.21782 0
-0.229965 -0.046312999 -1.224098 0
-0.230647 -0.046076 -1.21782 0
-0.232508 -0.046076 -1.21782 0
-0.235577 -0.046312999 -1.224098 0
-0.23744699 -0.046312999 -1.224098 0
-0.239317 -0.046312999 -1.224098 0
-0.241188 -0.046312999 -1.224098 0
-0.243058 -0.046312999 -1.224098 0
-0.244929 -0.046312999 -1.224098 0
-0.24679901 -0.046312999 -1.224098 0
-0.248669 -0.046312999 -1.224098 0
-0.25053999 -0.046312999 -1.224098 0
-0.25240999 -0.046312999 -1.224098 0
-0.25428101 -0.046312999 -1.224098 0
-0.25615099 -0.046312999 -1.224098 0
-0.25935799 -0.046553001 -1.23044 0
-0.26123801 -0.046553001 -1.23044 0
-0.26972401 -0.046076 -1.21782 0
-0.271584 -0.046076 -1.21782 0
-0.27344501 -0.046076 -1.21782 0
-0.27530599 -0.046076 -1.21782 0
-0.27716699 -0.046076 -1.21782 0
-0.279028 -0.046076 -1.21782 0
-0.28088799 -0.046076 -1.21782 0
-0.282749 -0.046076 -1.21782 0
-0.28461 -0.046076 -1.21782 0
-0.28647101 -0.046076 -1.21782 0
-0.28833199 -0.046076 -1.21782 0
-0.28871199 -0.045841001 -1.211607 0
-0.29056299 -0.045841001 -1.211607 0
-0.301357 -0.046076 -1.21782 0
-0.30321801 -0.046076 -1.21782 0
-0.30507901 -0.046076 -1.21782 0
-0.30852199 -0.046312999 -1.224098 0
-0.31200001 -0.046553001 -1.23044 0
-0.31388 -0.046553001 -1.23044 0
-0.31575999 -0.046553001 -1.23044 0
-0.31764099 -0.046553001 -1.23044 0
-0.31952101 -0.046553001 -1.23044 0
-0.323075 -0.046796001 -1.236849 0
-0.324965 -0.046796001 -1.236849 0
-0.32685399 -0.046796001 -1.236849 0
-0.32874399 -0.046796001 -1.236849 0
-0.330634 -0.046796001 -1.236849 0
-0.332524 -0.046796001 -1.236849 0
-0.33616501 -0.047040999 -1.243324 0
-0.36660001 -0.047538999 -1.2564811 0
-0.37811899 -0.047538999 -1.2564811 0
-0.378039 -0.047288001 -1.249868 0
-0.379949 -0.047288001 -1.249868 0
-0.38387901 -0.047538999 -1.2564811 0
-0.38579899 -0.047538999 -1.2564811 0
-0.38567799 -0.047288001 -1.249868 0
-0.38758799 -0.047288001 -1.249868 0
-0.389498 -0.047288001 -1.249868 0
-0.39140701 -0.047288001 -1.249868 0
-0.39331701 -0.047288001 -1.249868 0
-0.39522699 -0.047288001 -1.249868 0
-0.39713699 -0.047288001 -1.249868 0
-0.399046 -0.047288001 -1.249868 0
-0.400956 -0.047288001 -1.249868 0
-0.40286601 -0.047288001 -1.249868 0
-0.40477601 -0.047288001 -1.249868 0
-0.40668601 -0.047288001 -1.249868 0
-0.41075701 -0.047538999 -1.2564811 0
-0.41267699 -0.047538999 -1.2564811 0
-0.414597 -0.047538999 -1.2564811 0
-0.41651699 -0.047538999 -1.2564811 0
-0.42066199 -0.047791 -1.263165 0
-0.42485201 -0.048046999 -1.269919 0
-0.432989 -0.048305001 -1.276747 0
-0.33707801 -0.037436999 -0.98947901 0
-0.33859 -0.037436999 -0.98947901 0
-0.34010199 -0.037436999 -0.98947901 0
-0.34161401 -0.037436999 -0.98947901 0
-0.343126 -0.037436999 -0.98947901 0
-0.34463799 -0.037436999 -0.98947901 0
-0.34615001 -0.037436999 -0.98947901 0
-0.347662 -0.037436999 -0.98947901 0
-0.34917301 -0.037436999 -0.98947901 0
-0.350685 -0.037436999 -0.98947901 0
-0.35219699 -0.037436999 -0.98947901 0
-0.35370901 -0.037436999 -0.98947901 0
-0.355221 -0.037436999 -0.98947901 0
-0.35673299 -0.037436999 -0.98947901 0
-0.35824499 -0.037436999 -0.98947901 0
-0.35975701 -0.037436999 -0.98947901 0
-0.361269 -0.037436999 -0.98947901 0
-0.36278099 -0.037436999 -0.98947901 0
-0.364292 -0.037436999 -0.98947901 0
-0.36580399 -0.037436999 -0.98947901 0
-0.36731601 -0.037436999 -0.98947901 0
-0.368828 -0.037436999 -0.98947901 0
-1.709262 -0.172784 -4.5668259 0
-1.85926 -0.18718299 -4.9473939 0
-1.866819 -0.18718299 -4.9473939 0
-1.874378 -0.18718299 -4.9473939 0
-1.7712359 -0.176172 -4.6563711 0
-1.7783509 -0.176172 -4.6563711 0
-1.858341 -0.18336301 -4.846427 0
-1.904616 -0.18718299 -4.9473939 0
-1.912176 -0.18718299 -4.9473939 0
-1.973574 -0.17969599 -4.7494988 0
-1.980831 -0.17969599 -4.7494988 0
-1.988088 -0.17969599 -4.7494988 0
-1.995345 -0.17969599 -4.7494988 0
-2.0026021 -0.17969599 -4.7494988 0
-2.0098591 -0.17969599 -4.7494988 0
-2.0171161 -0.17969599 -4.7494988 0
-1.9846801 -0.176172 -4.6563711 0
-2.031631 -0.17969599 -4.7494988 0
-2.038888 -0.17969599 -4.7494988 0
-2.046145 -0.17969599 -4.7494988 0
-2.013139 -0.176172 -4.6563711 0
-2.0202539 -0.176172 -4.6563711 0
-2.027369 -0.176172 -4.6563711 0
-1.9953589 -0.172784 -4.5668259 0
-2.002337 -0.172784 -4.5668259 0
-2.048713 -0.176172 -4.6563711 0
-2.016293 -0.172784 -4.5668259 0
-2.0232711 -0.172784 -4.5668259 0
-2.0302491 -0.172784 -4.5668259 0
-2.0372269 -0.172784 -4.5668259 0
-2.044205 -0.172784 -4.5668259 0
-2.012481 -0.169524 -4.480659 0
-1.981932 -0.16638499 -4.3976841 0
-2.0261741 -0.169524 -4.480659 0
-1.959092 -0.16336 -4.3177261 0
-1.832422 -0.15228499 -4.0249991 0
-1.838572 -0.15228499 -4.0249991 0
-1.9094501 -0.157628 -4.1662269 0
-12.899525 -0.99831003 -26.386105 0
-12.939842 -0.99831003 -26.386105 0
-12.980159 -0.99831003 -26.386105 0
-0.82388997 -0.046796001 -1.236849 0
-0.82150102 -0.046553001 -1.23044 0
-0.82338101 -0.046553001 -1.23044 0
-0.825261 -0.046553001 -1.23044 0
-0.827142 -0.046553001 -1.23044 0
-0.83333898 -0.046796001 -1.236849 0
-0.83960199 -0.047040999 -1.243324 0
-0.85950202 -0.048046999 -1.269919 0
-2.5453751 -0.140387 -3.710546 0
-2.5510449 -0.140387 -3.710546 0
-2.5567141 -0.140387 -3.710546 0
-2.6030569 -0.142616 -3.769444 0
-2.6508939 -0.144916 -3.830241 0
-2.6567459 -0.144916 -3.830241 0
-2.7513521 -0.149746 -3.957916 0
-3.1215849 -0.169524 -4.480659 0
-3.2511151 -0.176172 -4.6563711 0
-3.3233941 -0.17969599 -4.7494988 0
-3.4694281 -0.18718299 -4.9473939 0
-3.4769881 -0.18718299 -4.9473939 0
-3.71685 -0.199662 -5.2772212 0
-3.59038 -0.18718299 -4.9473939 0
-3.597939 -0.18718299 -4.9473939 0
-3.605499 -0.18718299 -4.9473939 0
-3.6130581 -0.18718299 -4.9473939 0
-3.6206181 -0.18718299 -4.9473939 0
-3.6281769 -0.18718299 -4.9473939 0
-3.6357369 -0.18718299 -4.9473939 0
-3.643296 -0.18718299 -4.9473939 0
-3.650856 -0.18718299 -4.9473939 0
-3.6584151 -0.18718299 -4.9473939 0
-3.6659751 -0.18718299 -4.9473939 0
-3.6735339 -0.18718299 -4.9473939 0
-3.6810939 -0.18718299 -4.9473939 0
-3.688653 -0.18718299 -4.9473939 0
-3.696213 -0.18718299 -4.9473939 0
-3.7037721 -0.18718299 -4.9473939 0
-3.7113321 -0.18718299 -4.9473939 0
-3.7188909 -0.18718299 -4.9473939 0
-3.72645 -0.18718299 -4.9473939 0
-3.73401 -0.18718299 -4.9473939 0
-3.74157 -0.18718299 -4.9473939 0
-3.7491291 -0.18718299 -4.9473939 0
-3.7566881 -0.18718299 -4.9473939 0
-3.7642479 -0.18718299 -4.9473939 0
-3.771807 -0.18718299 -4.9473939 0
-3.8597789 -0.191166 -5.0526581 0
-3.951575 -0.19532201 -5.162498 0
-4.047451 -0.199662 -5.2772212 0
-4.0555148 -0.199662 -5.2772212 0
-4.0635781 -0.199662 -5.2772212 0
-3.9831281 -0.19532201 -5.162498 0
-3.9910159 -0.19532201 -5.162498 0
-3.913821 -0.191166 -5.0526581 0
-3.839843 -0.18718299 -4.9473939 0
-3.8474021 -0.18718299 -4.9473939 0
-3.8549621 -0.18718299 -4.9473939 0
-3.8625209 -0.18718299 -4.9473939 0
-3.9524231 -0.191166 -5.0526581 0
-3.9601431 -0.191166 -5.0526581 0
-3.9678631 -0.191166 -5.0526581 0
-3.975584 -0.191166 -5.0526581 0
-4.0698981 -0.19532201 -5.162498 0
-4.077785 -0.19532201 -5.162498 0
-4.0856738 -0.19532201 -5.162498 0
-4.006465 -0.191166 -5.0526581 0
-0.80576599 -0.037436999 -0.98947901 0
-0.80727798 -0.037436999 -0.98947901 0
-0.80879003 -0.037436999 -0.98947901 0
-0.81030202 -0.037436999 -0.98947901 0
-0.811813 -0.037436999 -0.98947901 0
-0.81332499 -0.037436999 -0.98947901 0
-0.81483698 -0.037436999 -0.98947901 0
-0.81634903 -0.037436999 -0.98947901 0
-0.81786102 -0.037436999 -0.98947901 0
-0.81937301 -0.037436999 -0.98947901 0
-0.820885 -0.037436999 -0.98947901 0
-0.82239699 -0.037436999 -0.98947901 0
-0.82390898 -0.037436999 -0.98947901 0
-0.82542098 -0.037436999 -0.98947901 0
-0.82693201 -0.037436999 -0.98947901 0
-0.828444 -0.037436999 -0.98947901 0
-0.829956 -0.037436999 -0.98947901 0
-0.83146799 -0.037436999 -0.98947901 0
-0.83297998 -0.037436999 -0.98947901 0
-0.83449203 -0.037436999 -0.98947901 0
-0.83600402 -0.037436999 -0.98947901 0
-0.83751601 -0.037436999 -0.98947901 0
-0.839028 -0.037436999 -0.98947901 0
-0.84053999 -0.037436999 -0.98947901 0
-0.84205103 -0.037436999 -0.98947901 0
-0.84356302 -0.037436999 -0.98947901 0
-0.84507501 -0.037436999 -0.98947901 0
-0.846587 -0.037436999 -0.98947901 0
-0.84809899 -0.037436999 -0.98947901 0
-0.84961098 -0.037436999 -0.98947901 0
-0.85112298 -0.037436999 -0.98947901 0
-0.85263503 -0.037436999 -0.98947901 0
-0.85414702 -0.037436999 -0.98947901 0
-0.85565799 -0.037436999 -0.98947901 0
-0.85716999 -0.037436999 -0.98947901 0
-0.85868198 -0.037436999 -0.98947901 0
-0.86019403 -0.037436999 -0.98947901 0
-0.86170602 -0.037436999 -0.98947901 0
-0.86321801 -0.037436999 -0.98947901 0
-0.86473 -0.037436999 -0.98947901 0
-0.86624199 -0.037436999 -0.98947901 0
-0.86775398 -0.037436999 -0.98947901 0
-0.86926502 -0.037436999 -0.98947901 0
-0.87077701 -0.037436999 -0.98947901 0
-0.872289 -0.037436999 -0.98947901 0
-0.87380099 -0.037436999 -0.98947901 0
-0.87531298 -0.037436999 -0.98947901 0
-0.87682498 -0.037436999 -0.98947901 0
-0.87833703 -0.037436999 -0.98947901 0
-0.87984902 -0.037436999 -0.98947901 0
-0.88136101 -0.037436999 -0.98947901 0
-0.882873 -0.037436999 -0.98947901 0
-0.88438398 -0.037436999 -0.98947901 0
-0.88589603 -0.037436999 -0.98947901 0
-0.88740802 -0.037436999 -0.98947901 0
-0.88892001 -0.037436999 -0.98947901 0
-0.890432 -0.037436999 -0.98947901 0
-0.89194399 -0.037436999 -0.98947901 0
-0.89345598 -0.037436999 -0.98947901 0
-0.89496797 -0.037436999 -0.98947901 0
-0.89648002 -0.037436999 -0.98947901 0
-0.89799201 -0.037436999 -0.98947901 0
-0.89950299 -0.037436999 -0.98947901 0
-0.90101498 -0.037436999 -0.98947901 0
-0.90252697 -0.037436999 -0.98947901 0
-0.90403903 -0.037436999 -0.98947901 0
-0.90555102 -0.037436999 -0.98947901 0
-0.90706301 -0.037436999 -0.98947901 0
-0.908575 -0.037436999 -0.98947901 0
-0.91008699 -0.037436999 -0.98947901 0
-0.91159898 -0.037436999 -0.98947901 0
-0.91311002 -0.037436999 -0.98947901 0
-0.91462201 -0.037436999 -0.98947901 0
-0.916134 -0.037436999 -0.98947901 0
-0.91764599 -0.037436999 -0.98947901 0
-0.91915798 -0.037436999 -0.98947901 0
-3.7696979 -0.15228499 -4.0249991 0
-3.7758491 -0.15228499 -4.0249991 0
-3.7819991 -0.15228499 -4.0249991 0
-3.7881491 -0.15228499 -4.0249991 0
-3.8597181 -0.15491 -4.0943961 0
-4.1523418 -0.16638499 -4.3976841 0
-4.244381 -0.169524 -4.480659 0
-4.5135579 -0.17969599 -4.7494988 0
-4.5280719 -0.17969599 -4.7494988 0
-4.5425858 -0.17969599 -4.7494988 0
-0.181334 -0.048686001 -1.236849 0
-0.20565 -0.048184 -1.224098 0
-0.20752101 -0.048184 -1.224098 0
-0.208317 -0.047936998 -1.21782 0
-0.210178 -0.047936998 -1.21782 0
-0.21203899 -0.047936998 -1.21782 0
-0.2139 -0.047936998 -1.21782 0
-0.21576101 -0.047936998 -1.21782 0
-0.217621 -0.047936998 -1.21782 0
-0.219482 -0.047936998 -1.21782 0
-0.221343 -0.047936998 -1.21782 0
-0.223204 -0.047936998 -1.21782 0
-0.22506499 -0.047936998 -1.21782 0
-0.226925 -0.047936998 -1.21782 0
-0.229965 -0.048184 -1.224098 0
-0.23183601 -0.048184 -1.224098 0
-0.232508 -0.047936998 -1.21782 0
-0.235577 -0.048184 -1.224098 0
-0.23744699 -0.048184 -1.224098 0
-0.239317 -0.048184 -1.224098 0
-0.239951 -0.047936998 -1.21782 0
-0.243058 -0.048184 -1.224098 0
-0.244929 -0.048184 -1.224098 0
-0.24679901 -0.048184 -1.224098 0
-0.248669 -0.048184 -1.224098 0
-0.25053999 -0.048184 -1.224098 0
-0.25240999 -0.048184 -1.224098 0
-0.25428101 -0.048184 -1.224098 0
-0.25615099 -0.048184 -1.224098 0
-0.25935799 -0.048432998 -1.23044 0
-0.26972401 -0.047936998 -1.21782 0
-0.271584 -0.047936998 -1.21782 0
-0.27344501 -0.047936998 -1.21782 0
-0.27530599 -0.047936998 -1.21782 0
-0.27716699 -0.047936998 -1.21782 0
-0.279028 -0.047936998 -1.21782 0
-0.28088799 -0.047936998 -1.21782 0
-0.282749 -0.047936998 -1.21782 0
-0.28461 -0.047936998 -1.21782 0
-0.28647101 -0.047936998 -1.21782 0
-0.28833199 -0.047936998 -1.21782 0
-0.28871199 -0.047692001 -1.211607 0
-0.29056299 -0.047692001 -1.211607 0
-0.29391399 -0.047936998 -1.21782 0
-0.86083698 -0.13951699 -3.5444019 0
-0.86625302 -0.13951699 -3.5444019 0
-0.299496 -0.047936998 -1.21782 0
-0.301357 -0.047936998 -1.21782 0
-0.30478099 -0.048184 -1.224098 0
-0.31551501 -0.048686001 -1.236849 0
-0.31740499 -0.048686001 -1.236849 0
-0.31929499 -0.048686001 -1.236849 0
-0.32118499 -0.048686001 -1.236849 0
-0.323075 -0.048686001 -1.236849 0
-0.324965 -0.048686001 -1.236849 0
-0.32685399 -0.048686001 -1.236849 0
-0.32874399 -0.048686001 -1.236849 0
-0.330634 -0.048686001 -1.236849 0
-0.332524 -0.048686001 -1.236849 0
-0.33616501 -0.048941001 -1.243324 0
-0.338065 -0.048941001 -1.243324 0
-0.36467999 -0.049458001 -1.2564811 0
-0.36660001 -0.049458001 -1.2564811 0
-0.37811899 -0.049458001 -1.2564811 0
-0.378039 -0.049198002 -1.249868 0
-0.379949 -0.049198002 -1.249868 0
-0.38387901 -0.049458001 -1.2564811 0
-0.38579899 -0.049458001 -1.2564811 0
-0.38567799 -0.049198002 -1.249868 0
-0.38758799 -0.049198002 -1.249868 0
-0.389498 -0.049198002 -1.249868 0
-0.39140701 -0.049198002 -1.249868 0
-0.39331701 -0.049198002 -1.249868 0
-0.39522699 -0.049198002 -1.249868 0
-0.39713699 -0.049198002 -1.249868 0
-0.399046 -0.049198002 -1.249868 0
-0.400956 -0.049198002 -1.249868 0
-0.40286601 -0.049198002 -1.249868 0
-0.40477601 -0.049198002 -1.249868 0
-0.40668601 -0.049198002 -1.249868 0
-0.408595 -0.049198002 -1.249868 0
-0.410505 -0.049198002 -1.249868 0
-0.414597 -0.049458001 -1.2564811 0
-0.41651699 -0.049458001 -1.2564811 0
-0.418437 -0.049458001 -1.2564811 0
-0.42259201 -0.049722001 -1.263165 0
-0.42679301 -0.049986999 -1.269919 0
-0.43103799 -0.050255999 -1.276747 0
-0.430673 -0.049986999 -1.269919 0
-0.43031299 -0.049722001 -1.263165 0
-0.43455401 -0.049986999 -1.269919 0
-0.34010199 -0.038949002 -0.98947901 0
-0.34161401 -0.038949002 -0.98947901 0
-0.343126 -0.038949002 -0.98947901 0
-0.34463799 -0.038949002 -0.98947901 0
-0.34615001 -0.038949002 -0.98947901 0
-0.347662 -0.038949002 -0.98947901 0
-0.34917301 -0.038949002 -0.98947901 0
-0.350685 -0.038949002 -0.98947901 0
-0.35219699 -0.038949002 -0.98947901 0
-0.35370901 -0.038949002 -0.98947901 0
-0.355221 -0.038949002 -0.98947901 0
-0.35673299 -0.038949002 -0.98947901 0
-0.35824499 -0.038949002 -0.98947901 0
-0.35975701 -0.038949002 -0.98947901 0
-0.361269 -0.038949002 -0.98947901 0
-0.36278099 -0.038949002 -0.98947901 0
-0.364292 -0.038949002 -0.98947901 0
-0.36580399 -0.038949002 -0.98947901 0
-0.36731601 -0.038949002 -0.98947901 0
-0.368828 -0.038949002 -0.98947901 0
-0.37033999 -0.038949002 -0.98947901 0
-0.37185201 -0.038949002 -0.98947901 0
-0.373364 -0.038949002 -0.98947901 0
-0.37487599 -0.038949002 -0.98947901 0
-0.37638801 -0.038949002 -0.98947901 0
-0.37789899 -0.038949002 -0.98947901 0
-1.718089 -0.17637099 -4.480659 0
-1.865747 -0.190768 -4.846427 0
-0.39301801 -0.038949002 -0.98947901 0
-0.39453 -0.038949002 -0.98947901 0
-1.9663171 -0.18695299 -4.7494988 0
-1.973574 -0.18695299 -4.7494988 0
-1.980831 -0.18695299 -4.7494988 0
-1.988088 -0.18695299 -4.7494988 0
-1.995345 -0.18695299 -4.7494988 0
-2.0026021 -0.18695299 -4.7494988 0
-2.0098591 -0.18695299 -4.7494988 0
-1.9775651 -0.18328699 -4.6563711 0
-1.9846801 -0.18328699 -4.6563711 0
-1.9917949 -0.18328699 -4.6563711 0
-1.998909 -0.18328699 -4.6563711 0
-2.0060239 -0.18328699 -4.6563711 0
-1.974425 -0.17976201 -4.5668259 0
-2.0202539 -0.18328699 -4.6563711 0
-1.988381 -0.17976201 -4.5668259 0
-1.957711 -0.17637099 -4.480659 0
-1.9645571 -0.17637099 -4.480659 0
-2.009315 -0.17976201 -4.5668259 0
-2.016293 -0.17976201 -4.5668259 0
-1.985096 -0.17637099 -4.480659 0
-1.991942 -0.17637099 -4.480659 0
-2.0372269 -0.17976201 -4.5668259 0
-2.044205 -0.17976201 -4.5668259 0
-1.9752131 -0.173105 -4.3976841 0
-1.981932 -0.173105 -4.3976841 0
-1.952495 -0.169957 -4.3177261 0
-1.826272 -0.158435 -4.0249991 0
-1.772343 -0.15324 -3.8930321 0
-1.778291 -0.15324 -3.8930321 0
-1.709546 -0.14163101 -3.598105 0
-0.82200003 -0.048686001 -1.236849 0
-0.82388997 -0.048686001 -1.236849 0
-0.82150102 -0.048432998 -1.23044 0
-0.82338101 -0.048432998 -1.23044 0
-0.825261 -0.048432998 -1.23044 0
-0.83144999 -0.048686001 -1.236849 0
-0.83333898 -0.048686001 -1.236849 0
-0.83960199 -0.048941001 -1.243324 0
-0.85950202 -0.049986999 -1.269919 0
-2.5510449 -0.14605699 -3.710546 0
-2.5567141 -0.14605699 -3.710546 0
-2.5623839 -0.14605699 -3.710546 0
-2.6088159 -0.148375 -3.769444 0
-2.6145761 -0.148375 -3.769444 0
-2.7513521 -0.15579399 -3.957916 0
-3.0637779 -0.173105 -4.3976841 0
-3.1284311 -0.17637099 -4.480659 0
-3.258229 -0.18328699 -4.6563711 0
-3.4694281 -0.19474301 -4.9473939 0
-3.4769881 -0.19474301 -4.9473939 0
-3.558686 -0.19888601 -5.0526581 0
-3.7249141 -0.207725 -5.2772212 0
-3.7329769 -0.207725 -5.2772212 0
-3.5147851 -0.19474301 -4.9473939 0
-3.5828199 -0.19474301 -4.9473939 0
-3.59038 -0.19474301 -4.9473939 0
-3.597939 -0.19474301 -4.9473939 0
-3.605499 -0.19474301 -4.9473939 0
-3.6130581 -0.19474301 -4.9473939 0
-3.6206181 -0.19474301 -4.9473939 0
-3.5541329 -0.190768 -4.846427 0
-3.561538 -0.190768 -4.846427 0
-3.643296 -0.19474301 -4.9473939 0
-3.650856 -0.19474301 -4.9473939 0
-3.6584151 -0.19474301 -4.9473939 0
-3.6659751 -0.19474301 -4.9473939 0
-3.6735339 -0.19474301 -4.9473939 0
-3.6810939 -0.19474301 -4.9473939 0
-3.688653 -0.19474301 -4.9473939 0
-3.696213 -0.19474301 -4.9473939 0
-3.7037721 -0.19474301 -4.9473939 0
-3.7113321 -0.19474301 -4.9473939 0
-3.7188909 -0.19474301 -4.9473939 0
-3.72645 -0.19474301 -4.9473939 0
-3.73401 -0.19474301 -4.9473939 0
-3.74157 -0.19474301 -4.9473939 0
-3.7491291 -0.19474301 -4.9473939 0
-3.7566881 -0.19474301 -4.9473939 0
-3.7642479 -0.19474301 -4.9473939 0
-3.771807 -0.19474301 -4.9473939 0
-3.779367 -0.19474301 -4.9473939 0
-3.8674991 -0.19888601 -5.0526581 0
-4.047451 -0.207725 -5.2772212 0
-4.0555148 -0.207725 -5.2772212 0
-4.0635781 -0.207725 -5.2772212 0
-4.0716419 -0.207725 -5.2772212 0
-4.0797052 -0.207725 -5.2772212 0
-3.998904 -0.20321 -5.162498 0
-3.921541 -0.19888601 -5.0526581 0
-3.8474021 -0.19474301 -4.9473939 0
-3.8549621 -0.19474301 -4.9473939 0
-3.8625209 -0.19474301 -4.9473939 0
-3.87008 -0.19474301 -4.9473939 0
-3.87764 -0.19474301 -4.9473939 0
-3.9678631 -0.19888601 -5.0526581 0
-3.975584 -0.19888601 -5.0526581 0
-4.0698981 -0.20321 -5.162498 0
-3.9078779 -0.19474301 -4.9473939 0
-3.998744 -0.19888601 -5.0526581 0
-3.922997 -0.19474301 -4.9473939 0
-0.804254 -0.038949002 -0.98947901 0
-0.80576599 -0.038949002 -0.98947901 0
-0.80727798 -0.038949002 -0.98947901 0
-0.80879003 -0.038949002 -0.98947901 0
-0.81030202 -0.038949002 -0.98947901 0
-0.811813 -0.038949002 -0.98947901 0
-0.81332499 -0.038949002 -0.98947901 0
-0.81483698 -0.038949002 -0.98947901 0
-0.81634903 -0.038949002 -0.98947901 0
-0.81786102 -0.038949002 -0.98947901 0
-0.81937301 -0.038949002 -0.98947901 0
-0.820885 -0.038949002 -0.98947901 0
-0.82239699 -0.038949002 -0.98947901 0
-0.82390898 -0.038949002 -0.98947901 0
-0.82542098 -0.038949002 -0.98947901 0
-0.82693201 -0.038949002 -0.98947901 0
-0.828444 -0.038949002 -0.98947901 0
-0.829956 -0.038949002 -0.98947901 0
-0.83146799 -0.038949002 -0.98947901 0
-0.83297998 -0.038949002 -0.98947901 0
-0.83449203 -0.038949002 -0.98947901 0
-0.83600402 -0.038949002 -0.98947901 0
-0.83751601 -0.038949002 -0.98947901 0
-0.839028 -0.038949002 -0.98947901 0
-0.84053999 -0.038949002 -0.98947901 0
-0.84205103 -0.038949002 -0.98947901 0
-0.84356302 -0.038949002 -0.98947901 0
-0.84507501 -0.038949002 -0.98947901 0
-0.846587 -0.038949002 -0.98947901 0
-0.84809899 -0.038949002 -0.98947901 0
-0.84961098 -0.038949002 -0.98947901 0
-0.85112298 -0.038949002 -0.98947901 0
-0.85263503 -0.038949002 -0.98947901 0
-0.85414702 -0.038949002 -0.98947901 0
-0.85565799 -0.038949002 -0.98947901 0
-0.85716999 -0.038949002 -0.98947901 0
-0.85868198 -0.038949002 -0.98947901 0
-0.86019403 -0.038949002 -0.98947901 0
-0.86170602 -0.038949002 -0.98947901 0
-0.86321801 -0.038949002 -0.98947901 0
-0.86473 -0.038949002 -0.98947901 0
-0.86624199 -0.038949002 -0.98947901 0
-0.86775398 -0.038949002 -0.98947901 0
-0.86926502 -0.038949002 -0.98947901 0
-0.87077701 -0.038949002 -0.98947901 0
-0.872289 -0.038949002 -0.98947901 0
-0.87380099 -0.038949002 -0.98947901 0
-0.87531298 -0.038949002 -0.98947901 0
-0.87682498 -0.038949002 -0.98947901 0
-0.87833703 -0.038949002 -0.98947901 0
-0.87984902 -0.038949002 -0.98947901 0
-0.88136101 -0.038949002 -0.98947901 0
-0.882873 -0.038949002 -0.98947901 0
-0.88438398 -0.038949002 -0.98947901 0
-0.88589603 -0.038949002 -0.98947901 0
-0.88740802 -0.038949002 -0.98947901 0
-0.88892001 -0.038949002 -0.98947901 0
-0.890432 -0.038949002 -0.98947901 0
-0.89194399 -0.038949002 -0.98947901 0
-0.89345598 -0.038949002 -0.98947901 0
-0.89496797 -0.038949002 -0.98947901 0
-0.89648002 -0.038949002 -0.98947901 0
-0.89799201 -0.038949002 -0.98947901 0
-0.89950299 -0.038949002 -0.98947901 0
-0.90101498 -0.038949002 -0.98947901 0
-0.90252697 -0.038949002 -0.98947901 0
-0.90403903 -0.038949002 -0.98947901 0
-0.90555102 -0.038949002 -0.98947901 0
-0.90706301 -0.038949002 -0.98947901 0
-0.91159898 -0.038949002 -0.98947901 0
-0.91311002 -0.038949002 -0.98947901 0
-0.91462201 -0.038949002 -0.98947901 0
-0.916134 -0.038949002 -0.98947901 0
-0.91764599 -0.038949002 -0.98947901 0
-0.91915798 -0.038949002 -0.98947901 0
-0.92066997 -0.038949002 -0.98947901 0
