0.741494 0.072494 -2.317407
0.756333 0.074330 -2.376076
0.819856 0.080994 -2.589103
0.899610 0.091751 -2.932968
0.894755 0.091751 -2.932968
0.268559 0.029287 -0.936209
0.267009 0.029287 -0.936209
0.267460 0.029508 -0.943266
0.267242 0.029657 -0.948030
0.265672 0.029657 -0.948030
0.268855 0.030190 -0.965090
0.269335 0.030425 -0.972590
0.269822 0.030663 -0.980209
0.269607 0.030824 -0.985354
0.267976 0.030824 -0.985354
0.267045 0.030905 -0.987947
0.265410 0.030905 -0.987947
0.291133 0.038130 -1.218896
0.286326 0.037762 -1.207138
0.281611 0.037402 -1.195605
0.274389 0.036700 -1.173187
0.267432 0.036025 -1.151595
0.265526 0.036025 -1.151595
0.263620 0.036025 -1.151595
0.262518 0.036136 -1.155138
0.260606 0.036136 -1.155138
0.261917 0.036586 -1.169532
0.324724 0.045697 -1.460778
0.327401 0.046419 -1.483873
0.335555 0.047935 -1.532326
0.341379 0.049138 -1.570795
0.963905 0.139810 -4.469285
1.004332 0.146801 -4.692749
0.247593 0.036472 -1.165900
0.234729 0.034849 -1.114006
0.231511 0.034643 -1.107433
0.780652 0.134989 -4.315171
0.731470 0.127653 -4.080651
0.694518 0.122334 -3.910624
0.667194 0.118627 -3.792120
0.157909 0.031318 -1.001120
0.152589 0.030584 -0.977656
0.150971 0.030584 -0.977656
0.149352 0.030584 -0.977656
0.146969 0.030425 -0.972590
0.133382 0.028231 -0.902452
0.128792 0.027568 -0.881267
0.441197 0.118627 -3.792120
0.434920 0.118627 -3.792120
0.428642 0.118627 -3.792120
0.054629 0.024416 -0.780499
0.052251 0.023919 -0.764603
0.050882 0.023870 -0.763049
0.049618 0.023870 -0.763049
0.048355 0.023870 -0.763049
0.048471 0.024569 -0.785397
0.047569 0.024777 -0.792025
0.046258 0.024777 -0.792025
0.044758 0.024672 -0.788697
0.042558 0.024165 -0.772469
0.041280 0.024165 -0.772469
0.034794 0.022455 -0.717820
0.033288 0.022243 -0.711023
0.015190 0.016611 -0.531004
0.014231 0.016518 -0.528017
0.013135 0.016244 -0.519253
0.012075 0.015978 -0.510775
0.010975 0.015617 -0.499229
0.010149 0.015617 -0.499229
0.009322 0.015617 -0.499229
0.008496 0.015617 -0.499229
0.007670 0.015617 -0.499229
0.010122 0.026273 -0.839866
0.008673 0.026098 -0.834266
0.007325 0.026214 -0.837991
0.005938 0.026214 -0.837991
0.004550 0.026214 -0.837991
0.003163 0.026214 -0.837991
0.001776 0.026214 -0.837991
-0.002141 0.056192 -1.796268
-0.007423 0.081556 -2.607083
-0.008088 0.056192 -1.796268
-0.015727 0.079892 -2.553877
-0.019955 0.079892 -2.553877
-0.028213 0.093207 -2.979523
-0.033680 0.094710 -3.027580
-0.038078 0.093207 -2.979523
-0.042010 0.091039 -2.910232
-0.046828 0.091039 -2.910232
-0.051646 0.091039 -2.910232
-0.021425 0.027504 -0.879204
-0.022827 0.027439 -0.877149
-0.024054 0.027185 -0.869028
-0.025492 0.027185 -0.869028
-0.026931 0.027185 -0.869028
-0.029390 0.028163 -0.900288
-0.065700 0.059919 -1.915408
-0.150215 0.124937 -3.993829
-0.156827 0.124937 -3.993829
-0.176588 0.134989 -4.315171
-0.183732 0.134989 -4.315171
-0.063609 0.033651 -1.075702
-0.064833 0.033364 -1.066534
-0.066410 0.033269 -1.063513
-0.067596 0.032989 -1.054550
-0.225085 0.091039 -2.910232
-0.229903 0.091039 -2.910232
-0.234721 0.091039 -2.910232
-0.232335 0.088301 -2.822706
-0.237007 0.088301 -2.822706
-0.241680 0.088301 -2.822706
-0.061588 0.022075 -0.705677
-0.061941 0.021789 -0.696512
-0.062978 0.021748 -0.695222
-0.063774 0.021628 -0.691381
-0.064919 0.021628 -0.691381
-0.086648 0.028367 -0.906811
-0.089887 0.028926 -0.924680
-1.065469 0.183501 -5.865936
-1.042598 0.177941 -5.688180
-0.394506 0.066728 -2.133068
-0.398037 0.066728 -2.133068
-0.397056 0.065978 -2.109101
-0.400548 0.065978 -2.109101
-0.393000 0.064175 -2.051475
-0.373920 0.060536 -1.935154
-0.355155 0.057010 -1.822427
-0.168057 0.022893 -0.731813
-0.169269 0.022893 -0.731813
-0.164563 0.021789 -0.696512
-0.165716 0.021789 -0.696512
-1.483034 0.183501 -5.865936
-2.985489 0.367002 -11.731873
-3.004911 0.367002 -11.731873
-2.765104 0.335545 -10.726283
-2.782861 0.335545 -10.726283
-2.513375 0.301130 -9.626152
-0.922088 0.107744 -3.444219
-0.857026 0.099526 -3.181525
-0.794926 0.091751 -2.932968
-0.710917 0.081556 -2.607083
-0.660215 0.075283 -2.406538
-0.635675 0.072050 -2.303190
-0.624171 0.070324 -2.248024
-0.627892 0.070324 -2.248024
-0.787161 0.087642 -2.801641
-0.791799 0.087642 -2.801641
-0.795141 0.086993 -2.780888
-0.169406 0.017714 -0.566244
-0.168815 0.017555 -0.561166
-0.168986 0.017476 -0.558661
-0.168656 0.017347 -0.554535
-0.169075 0.017296 -0.552901
-0.169990 0.017296 -0.552901
-0.171664 0.017373 -0.555355
-0.175175 0.017634 -0.563694
-0.178249 0.017848 -0.570547
-0.179740 0.017903 -0.572286
-0.180963 0.017930 -0.573160
-0.185019 0.018236 -0.582950
-0.192157 0.017070 -0.545668
-0.190022 0.016801 -0.537081
-0.187689 0.016518 -0.528017
-0.186724 0.016357 -0.522869
-0.187590 0.016357 -0.522869
-0.253392 0.021993 -0.703034
-0.260907 0.022541 -0.720576
-0.259609 0.022327 -0.713726
-0.260790 0.022327 -0.713726
-0.266018 0.022672 -0.724749
-0.659729 0.052664 -1.683497
-0.659558 0.052429 -1.675982
-0.867687 0.066728 -2.133068
-0.819970 0.062803 -2.007593
-0.810294 0.061811 -1.975894
-0.822220 0.062468 -1.996915
0.910930 0.056748 -1.915408
0.907759 0.056748 -1.915408
0.852400 0.053474 -1.804904
0.845348 0.053218 -1.796268
0.818867 0.051733 -1.746139
0.786703 0.049877 -1.683497
0.798234 0.050788 -1.714246
1.062145 0.067821 -2.289146
1.157136 0.074151 -2.502800
1.152992 0.074151 -2.502800
0.921537 0.059479 -2.007593
0.913329 0.059163 -1.996915
0.914890 0.059479 -2.007593
0.906717 0.059163 -1.996915
0.898632 0.058850 -1.986349
0.895343 0.058850 -1.986349
0.887360 0.058540 -1.975894
0.874880 0.057930 -1.955312
0.871643 0.057930 -1.955312
0.863906 0.057630 -1.945181
0.838952 0.056175 -1.896060
0.795630 0.053474 -1.804904
0.695652 0.046931 -1.584050
0.693029 0.046931 -1.584050
0.690407 0.046931 -1.584050
0.654638 0.044669 -1.507710
0.644379 0.044137 -1.489762
0.639376 0.043963 -1.483873
0.386401 0.033202 -1.120656
0.784049 0.072225 -2.437792
0.750763 0.069516 -2.346375
0.770971 0.071759 -2.422064
0.814240 0.076182 -2.571369
0.931162 0.087579 -2.956062
0.911587 0.087579 -2.956062
0.899610 0.086895 -2.932968
0.894755 0.086895 -2.932968
0.269437 0.027668 -0.933880
0.267891 0.027668 -0.933880
0.266345 0.027668 -0.933880
0.266123 0.027806 -0.938550
0.264569 0.027806 -0.938550
0.265003 0.028017 -0.945642
0.267480 0.028447 -0.960153
0.269335 0.028815 -0.972590
0.269822 0.029041 -0.980209
0.269607 0.029193 -0.985354
0.269390 0.029347 -0.990554
0.288179 0.035995 -1.214951
0.140582 0.017683 -0.596852
0.137194 0.017379 -0.586594
0.136223 0.017379 -0.586594
0.265526 0.034118 -1.151595
0.264431 0.034223 -1.155138
0.262518 0.034223 -1.155138
0.262220 0.034435 -1.162291
0.262736 0.034758 -1.173187
0.327271 0.043618 -1.472235
0.327401 0.043963 -1.483873
0.334191 0.045214 -1.526097
0.334383 0.045584 -1.538606
0.338778 0.046538 -1.570795
4.228766 0.585399 -19.758944
4.196056 0.585399 -19.758944
0.230623 0.032427 -1.094519
0.222960 0.031598 -1.066534
0.226999 0.032427 -1.094519
0.806332 0.130854 -4.416705
0.780652 0.127846 -4.315171
0.708371 0.117080 -3.951789
0.673472 0.112349 -3.792120
0.635118 0.106948 -3.609807
0.611502 0.103949 -3.508597
0.553925 0.095065 -3.208717
0.194910 0.036230 -1.222866
0.154611 0.029041 -0.980209
0.152589 0.028965 -0.977656
0.150971 0.028965 -0.977656
0.149352 0.028965 -0.977656
0.551250 0.129332 -4.365348
0.433204 0.102987 -3.476110
0.408535 0.098430 -3.322300
0.392612 0.095884 -3.236379
0.368209 0.091169 -3.077212
0.351588 0.088274 -2.979523
0.335989 0.085558 -2.887846
0.331208 0.085558 -2.887846
0.331528 0.086895 -2.932968
0.373340 0.099309 -3.351964
2.547167 0.855583 -28.878456
3.249168 1.112259 -37.541992
3.124870 1.112259 -37.541992
0.073979 0.026866 -0.906811
0.072478 0.026866 -0.906811
0.071148 0.026931 -0.909007
0.056628 0.023416 -0.790358
0.054629 0.023124 -0.780499
0.052789 0.022886 -0.772469
0.050985 0.022653 -0.764603
0.049618 0.022607 -0.763049
0.048355 0.022607 -0.763049
0.048880 0.023465 -0.792025
0.047670 0.023515 -0.793700
0.046454 0.023565 -0.795381
0.044947 0.023465 -0.792025
0.042646 0.022933 -0.774062
0.041280 0.022886 -0.772469
0.039115 0.022379 -0.755372
0.020568 0.017298 -0.583857
0.019302 0.017033 -0.574916
0.015320 0.015867 -0.535549
0.014311 0.015732 -0.531004
0.013245 0.015513 -0.523598
0.012124 0.015195 -0.512869
0.011093 0.014950 -0.504597
0.010149 0.014791 -0.499229
0.009322 0.014791 -0.499229
0.008496 0.014791 -0.499229
0.008673 0.024717 -0.834266
0.007292 0.024717 -0.834266
0.005924 0.024772 -0.836125
0.004550 0.024827 -0.837991
0.003156 0.024772 -0.836125
0.001752 0.024499 -0.826916
0.000383 0.024499 -0.826916
-0.002120 0.052714 -1.779241
-0.007423 0.077240 -2.607083
-0.011739 0.077240 -2.607083
-0.018061 0.086895 -2.932968
-0.038692 0.089698 -3.027580
-0.042338 0.086895 -2.932968
-0.046828 0.086222 -2.910232
-0.141751 0.236651 -7.987658
-0.023886 0.029041 -0.980209
-0.024486 0.027876 -0.940902
-0.026043 0.027876 -0.940902
-0.156827 0.118325 -3.993829
-0.158264 0.110125 -3.717029
-0.069192 0.046344 -1.564250
-0.071782 0.046344 -1.564250
-0.109504 0.068237 -2.303190
-0.113317 0.068237 -2.303190
-0.115013 0.067004 -2.261566
-0.115284 0.065044 -2.195438
-0.061828 0.031870 -1.075702
-0.063067 0.031598 -1.066534
-0.064104 0.031243 -1.054550
-0.044568 0.021146 -0.713726
-0.045576 0.021066 -0.711023
-0.068954 0.031069 -1.048659
-0.221325 0.083004 -2.801641
-0.225963 0.083004 -2.801641
-0.230601 0.083004 -2.801641
-0.237007 0.083628 -2.822706
-0.062288 0.020751 -0.700410
-0.062978 0.020597 -0.695222
-0.064010 0.020559 -0.693937
-0.065159 0.020559 -0.693937
-0.080794 0.025051 -0.845540
-0.086478 0.026357 -0.889621
-0.091417 0.027396 -0.924680
-4.337051 0.855583 -28.878456
-2.850158 0.556129 -18.770996
-1.557423 0.300610 -10.146484
-1.120118 0.213896 -7.219614
-0.878621 0.166009 -5.603282
-0.699872 0.130854 -4.416705
-0.601106 0.111226 -3.754199
-0.523553 0.095884 -3.236379
-0.471951 0.085558 -2.887846
-0.394506 0.063197 -2.133068
-0.382811 0.060779 -2.051475
-0.388330 0.061113 -2.062747
-0.402811 0.062839 -2.121017
-0.406322 0.062839 -2.121017
-0.409833 0.062839 -2.121017
-0.391240 0.059479 -2.007593
-0.244098 0.035310 -1.191809
-0.234176 0.033603 -1.134199
-0.232541 0.033103 -1.117321
-0.230279 0.032522 -1.097719
-0.228752 0.032054 -1.081902
-0.222837 0.030982 -1.045738
-0.131089 0.018086 -0.610439
-0.131034 0.017940 -0.605516
-0.131190 0.017825 -0.601635
-0.129286 0.017434 -0.588432
-0.127855 0.017112 -0.577569
-0.126095 0.016751 -0.565391
-0.126271 0.016651 -0.562006
-0.126444 0.016551 -0.558661
-0.127369 0.016551 -0.558661
-0.125993 0.015799 -0.533267
-0.127601 0.015889 -0.536314
-2.985489 0.347581 -11.731873
-3.004911 0.347581 -11.731873
-2.932686 0.337048 -11.376361
-2.951519 0.337048 -11.376361
-0.731229 0.079447 -2.681571
-0.643710 0.069516 -2.346375
-0.605936 0.065044 -2.195438
-0.602523 0.064292 -2.170057
-0.609640 0.064666 -2.182674
-0.631614 0.066602 -2.248024
-0.757864 0.079447 -2.681571
-0.762304 0.079447 -2.681571
-0.735233 0.076182 -2.571369
-0.739490 0.076182 -2.571369
-0.668829 0.066602 -2.248024
-0.166641 0.016502 -0.557003
-0.166329 0.016381 -0.552901
-0.167244 0.016381 -0.552901
-0.168160 0.016381 -0.552901
-0.167106 0.016190 -0.546463
-0.168011 0.016190 -0.546463
-0.170154 0.016309 -0.550469
-0.172583 0.016454 -0.555355
-0.176108 0.016701 -0.563694
-0.179740 0.016955 -0.572286
-0.180963 0.016981 -0.573160
-0.184446 0.017218 -0.581145
-0.192436 0.016190 -0.546463
-0.191944 0.016073 -0.542514
-0.190095 0.015844 -0.534786
-0.190980 0.015844 -0.534786
-0.192965 0.015935 -0.537851
-0.260214 0.021390 -0.721961
-0.262418 0.021472 -0.724749
-0.263618 0.021472 -0.724749
-0.265844 0.021555 -0.727558
-0.267567 0.021597 -0.728971
-0.270349 0.021724 -0.733242
-0.628685 0.047330 -1.597532
-0.631330 0.047330 -1.597532
-0.633974 0.047330 -1.597532
-0.918000 0.067410 -2.275272
-0.864156 0.063197 -2.133068
-0.816647 0.059479 -2.007593
-0.815609 0.059163 -1.996915
-0.810294 0.058540 -1.975894
0.879519 0.051730 -1.849359
0.855388 0.050486 -1.804904
0.848322 0.050244 -1.796268
0.821757 0.048842 -1.746139
0.785966 0.046880 -1.675982
0.786703 0.047090 -1.683497
0.783916 0.047090 -1.683497
1.062145 0.064031 -2.289146
1.051942 0.063643 -2.275272
0.789721 0.047950 -1.714246
0.786883 0.047950 -1.714246
0.889668 0.054410 -1.945181
0.914890 0.056156 -2.007593
0.906717 0.055857 -1.996915
0.898632 0.055561 -1.986349
0.885968 0.054980 -1.965549
0.878117 0.054693 -1.955312
0.865860 0.054129 -1.935154
0.824411 0.051730 -1.849359
0.821349 0.051730 -1.849359
0.798618 0.050486 -1.804904
0.686684 0.043573 -1.557759
0.684106 0.043573 -1.557759
0.675918 0.043214 -1.544938
0.639166 0.041020 -1.466484
0.634261 0.040860 -1.460778
0.631842 0.040860 -1.460778
0.636858 0.041343 -1.478031
0.311914 0.025304 -0.904626
0.189127 0.015720 -0.562006
0.188197 0.015720 -0.562006
0.187266 0.015720 -0.562006
0.306520 0.026253 -0.938550
0.302696 0.026057 -0.931563
0.749167 0.064822 -2.317407
0.784049 0.068189 -2.437792
0.774981 0.067749 -2.422064
0.786188 0.069086 -2.469868
0.814240 0.071925 -2.571369
0.953690 0.084686 -3.027580
0.899610 0.082040 -2.932968
0.483543 0.046880 -1.675982
0.267891 0.026122 -0.933880
0.266345 0.026122 -0.933880
0.266123 0.026253 -0.938550
0.263910 0.026187 -0.936209
0.263675 0.026319 -0.940902
0.262776 0.026385 -0.943266
0.265891 0.026857 -0.960153
0.267725 0.027205 -0.972590
0.268199 0.027418 -0.980209
0.141570 0.016695 -0.596852
0.138599 0.016459 -0.588432
0.137194 0.016408 -0.586594
0.136011 0.016382 -0.585679
0.135041 0.016382 -0.585679
0.264431 0.032311 -1.155138
0.264144 0.032511 -1.162291
0.264678 0.032816 -1.173187
0.327142 0.040860 -1.460778
0.327271 0.041181 -1.472235
0.330010 0.041837 -1.495697
0.332838 0.042515 -1.519919
0.333019 0.042862 -1.532326
0.335967 0.043573 -1.557759
0.221076 0.029581 -1.057521
0.216279 0.029170 -1.042833
0.213368 0.029009 -1.037072
0.856728 0.131264 -4.692749
0.799020 0.123542 -4.416705
0.739508 0.115397 -4.125494
0.701829 0.110538 -3.951789
0.635118 0.100972 -3.609807
0.573954 0.092115 -3.293157
0.273457 0.044308 -1.584050
0.198878 0.034543 -1.234934
0.194277 0.034094 -1.218896
0.187392 0.033231 -1.188038
0.152589 0.027347 -0.977656
0.150971 0.027347 -0.977656
0.493828 0.109386 -3.910624
0.433204 0.097232 -3.476110
0.397970 0.090527 -3.236379
0.373303 0.086075 -3.077212
0.359372 0.084009 -3.003359
0.343411 0.081404 -2.910232
0.330898 0.079554 -2.844090
0.316596 0.077214 -2.760441
0.307504 0.076095 -2.720434
0.357385 0.089753 -3.208717
0.073979 0.025365 -0.906811
0.072478 0.025365 -0.906811
0.071148 0.025426 -0.909007
0.070670 0.025801 -0.922408
0.054972 0.021969 -0.785397
0.053007 0.021696 -0.775661
0.051404 0.021563 -0.770883
0.049618 0.021344 -0.763049
0.048553 0.021431 -0.766163
0.048880 0.022154 -0.792025
0.047872 0.022295 -0.797070
0.046553 0.022295 -0.797070
0.045137 0.022248 -0.795381
0.042911 0.021787 -0.778880
0.041536 0.021741 -0.777267
0.020191 0.016032 -0.573160
0.019155 0.015959 -0.570547
0.018183 0.015935 -0.569681
0.017058 0.015767 -0.563694
0.015632 0.015285 -0.546463
0.014434 0.014980 -0.535549
0.013357 0.014769 -0.528017
0.012208 0.014444 -0.516396
0.011153 0.014191 -0.507324
0.010149 0.013964 -0.499229
0.009322 0.013964 -0.499229
0.008496 0.013964 -0.499229
0.008616 0.023181 -0.828742
0.007212 0.023079 -0.825099
0.005872 0.023181 -0.828742
0.004540 0.023388 -0.836125
0.003094 0.022928 -0.819694
0.001737 0.022928 -0.819694
0.000795 0.047950 -1.714246
-0.002120 0.049768 -1.779241
-0.005066 0.049768 -1.779241
-0.008088 0.050244 -1.796268
-0.015727 0.071436 -2.553877
-0.019955 0.071436 -2.553877
-0.299865 0.656318 -23.463745
-0.041687 0.080778 -2.887846
-0.046828 0.081404 -2.910232
-0.141751 0.223428 -7.987658
-0.056124 0.064424 -2.303190
-0.059937 0.064424 -2.303190
-0.142720 0.093760 -3.351964
-0.060606 0.038325 -1.370146
-0.103160 0.062881 -2.248024
-0.108836 0.064031 -2.289146
-0.111269 0.063260 -2.261566
-0.111650 0.061410 -2.195438
-0.115284 0.061410 -2.195438
-0.063067 0.029833 -1.066534
-0.043386 0.019964 -0.713726
-0.044399 0.019888 -0.711023
-0.045576 0.019888 -0.711023
-0.097880 0.034657 -1.239010
-0.225963 0.078366 -2.801641
-0.230601 0.078366 -2.801641
-0.375262 0.125013 -4.469285
-0.387271 0.126519 -4.523131
-0.402247 0.126519 -4.523131
-0.062978 0.019446 -0.695222
-0.064010 0.019411 -0.693937
-0.065159 0.019411 -0.693937
-0.080072 0.023440 -0.837991
-0.082009 0.023598 -0.843640
-0.083593 0.023651 -0.845540
-0.084802 0.023598 -0.843640
-1.583421 0.291697 -10.428331
-1.087258 0.198134 -7.083395
-0.869345 0.156733 -5.603282
-0.795509 0.141907 -5.073242
-0.668417 0.117990 -4.218201
-0.601106 0.105011 -3.754199
-0.523553 0.090527 -3.236379
-0.468348 0.080161 -2.865801
-0.427414 0.072421 -2.589103
-0.393689 0.066045 -2.361132
-0.371871 0.061771 -2.208353
-0.409833 0.059328 -2.121017
-0.391240 0.056156 -2.007593
-0.238792 0.032612 -1.165900
-0.232770 0.031535 -1.127387
-0.230483 0.030977 -1.107433
-0.230279 0.030705 -1.097719
-0.230078 0.030438 -1.088174
-0.226624 0.029748 -1.063513
-0.133477 0.017386 -0.621556
-0.130194 0.016829 -0.601635
-0.128312 0.016459 -0.588432
-0.126899 0.016156 -0.577569
-0.125159 0.015815 -0.565391
-0.125153 0.015697 -0.561166
-0.125519 0.015627 -0.558661
-0.126444 0.015627 -0.558661
-0.126428 0.015511 -0.554535
-0.126412 0.015397 -0.550469
-0.124050 0.015002 -0.536314
-0.122832 0.014749 -0.527275
-0.125110 0.014916 -0.533267
-0.125815 0.014895 -0.532511
-4.745708 0.525055 -18.770996
-4.342530 0.477322 -17.064541
-3.004911 0.328159 -11.731873
-3.024332 0.328159 -11.731873
-3.043754 0.328159 -11.731873
-0.624203 0.063643 -2.275272
-0.592086 0.060006 -2.145257
-0.592253 0.059665 -2.133068
-0.595784 0.059665 -2.133068
-0.620468 0.061771 -2.208353
-0.654945 0.064822 -2.317407
-0.706772 0.069544 -2.486225
-0.706210 0.069086 -2.469868
-0.696552 0.067749 -2.422064
-0.691637 0.066886 -2.391210
-0.165719 0.015580 -0.557003
-0.165414 0.015466 -0.552901
-0.165841 0.015420 -0.551277
-0.166022 0.015352 -0.548860
-0.165960 0.015263 -0.545668
-0.166621 0.015241 -0.544877
-0.167523 0.015241 -0.544877
-0.168670 0.015263 -0.545668
-0.169573 0.015263 -0.545668
-0.170477 0.015263 -0.545668
-0.177041 0.015767 -0.563694
-0.180963 0.016032 -0.573160
-0.260833 0.020430 -0.730389
-0.260522 0.020312 -0.726151
-0.262740 0.020390 -0.728971
-0.263435 0.020351 -0.727558
-0.264640 0.020351 -0.727558
-0.265844 0.020351 -0.727558
-0.267049 0.020351 -0.727558
-0.269822 0.020470 -0.731813
-0.618163 0.043938 -1.570795
-0.618177 0.043755 -1.564250
-0.620767 0.043755 -1.564250
-0.880032 0.061771 -2.208353
-0.883688 0.061771 -2.208353
-0.882155 0.061410 -2.195438
-0.875549 0.060700 -2.170057
-0.844952 0.058339 -2.085666
-0.816647 0.056156 -2.007593
-0.815609 0.055857 -1.996915
-0.233654 0.013964 -0.499229
-0.234481 0.013964 -0.499229
-0.441275 0.026187 -0.936209
0.858376 0.047498 -1.804904
0.855388 0.047498 -1.804904
0.848322 0.047271 -1.796268
0.788740 0.044105 -1.675982
0.724512 0.040657 -1.544938
0.698943 0.039361 -1.495697
0.773510 0.043715 -1.661150
0.770760 0.043715 -1.661150
0.768010 0.043715 -1.661150
0.772093 0.044105 -1.675982
0.786883 0.045112 -1.714246
0.918213 0.052832 -2.007593
0.881354 0.051456 -1.955312
0.860196 0.050406 -1.915408
0.631492 0.037141 -1.411353
0.629156 0.037141 -1.411353
0.677780 0.040161 -1.526097
0.689263 0.040994 -1.557759
0.686684 0.040994 -1.557759
0.684106 0.040994 -1.557759
0.651778 0.039205 -1.489762
0.636679 0.038442 -1.460778
0.626942 0.037998 -1.443923
0.624552 0.037998 -1.443923
0.624564 0.038145 -1.449498
0.622164 0.038145 -1.449498
0.369505 0.028067 -1.066534
0.362589 0.027674 -1.051596
0.365974 0.028067 -1.066534
0.172405 0.013351 -0.507324
0.171565 0.013351 -0.507324
0.189127 0.014790 -0.562006
0.329195 0.025999 -0.987947
0.306520 0.024699 -0.938550
0.302696 0.024515 -0.931563
0.304937 0.024823 -0.943266
0.794365 0.064997 -2.469868
0.790277 0.064997 -2.469868
0.786188 0.064997 -2.469868
0.819856 0.068135 -2.589103
0.953690 0.079674 -3.027580
0.489681 0.043909 -1.668533
0.486919 0.043909 -1.668533
0.484156 0.043909 -1.668533
0.483543 0.044105 -1.675982
0.266123 0.024699 -0.938550
0.263910 0.024637 -0.936209
0.263016 0.024699 -0.938550
0.262776 0.024823 -0.943266
0.267258 0.025397 -0.965090
0.267725 0.025595 -0.972590
0.266806 0.025661 -0.975117
0.141570 0.015707 -0.596852
0.138599 0.015485 -0.588432
0.137194 0.015437 -0.586594
0.135799 0.015389 -0.584766
0.134831 0.015389 -0.584766
0.266068 0.030587 -1.162291
0.267456 0.030971 -1.176865
0.330848 0.038592 -1.466484
0.328420 0.038592 -1.466484
0.327271 0.038744 -1.472235
0.330010 0.039361 -1.495697
0.332838 0.039998 -1.519919
0.333019 0.040325 -1.532326
0.334579 0.040825 -1.551322
0.333388 0.040994 -1.557759
0.216279 0.027443 -1.042833
0.207632 0.026558 -1.009193
0.848959 0.123495 -4.692749
0.820674 0.120483 -4.578292
0.766365 0.113559 -4.315171
0.623134 0.093204 -3.541697
0.276079 0.041686 -1.584050
0.270039 0.041165 -1.564250
0.268568 0.041337 -1.570795
0.200922 0.032499 -1.234934
0.196295 0.032077 -1.218896
0.191786 0.031665 -1.203269
0.186213 0.031068 -1.180566
0.181407 0.030587 -1.162291
0.112007 0.021906 -0.832417
0.110629 0.021906 -0.832417
0.208780 0.041863 -1.590762
0.558477 0.114879 -4.365348
0.460267 0.095918 -3.644854
0.403328 0.085169 -3.236379
0.397970 0.085169 -3.236379
0.370268 0.080322 -3.052194
0.356520 0.078410 -2.979523
0.335606 0.074845 -2.844090
0.316511 0.071591 -2.720434
0.299007 0.068608 -2.607083
0.292659 0.068135 -2.589103
0.288373 0.068135 -2.589103
0.079551 0.025661 -0.975117
0.073724 0.024274 -0.922408
0.072197 0.024274 -0.922408
0.070670 0.024274 -0.922408
0.055319 0.020799 -0.790358
0.053560 0.020625 -0.783758
0.051723 0.020412 -0.775661
0.050128 0.020287 -0.770883
0.049155 0.020412 -0.775661
0.048777 0.020799 -0.790358
0.047670 0.020887 -0.793700
0.046454 0.020931 -0.795381
0.044852 0.020799 -0.790358
0.042911 0.020497 -0.778880
0.041536 0.020455 -0.777267
0.020191 0.015083 -0.573160
0.019213 0.015060 -0.572286
0.018210 0.015015 -0.570547
0.017058 0.014834 -0.563694
0.015817 0.014550 -0.552901
0.014579 0.014236 -0.540951
0.013509 0.014053 -0.534025
0.012413 0.013818 -0.525063
0.011353 0.013590 -0.516396
0.010314 0.013351 -0.507324
0.009423 0.013279 -0.504597
0.008503 0.021524 -0.817908
0.005506 0.016577 -0.629899
0.004448 0.016521 -0.627792
0.004520 0.021906 -0.832417
0.003087 0.021524 -0.817908
0.001733 0.021524 -0.817908
0.000784 0.044503 -1.691081
-0.002043 0.045112 -1.714246
-0.004815 0.044503 -1.691081
-0.007614 0.044503 -1.691081
-0.011795 0.050406 -1.915408
-0.015520 0.052273 -1.986349
-0.019112 0.053116 -2.018387
-0.022453 0.053116 -2.018387
-0.025120 0.051726 -1.965549
-0.028226 0.051456 -1.955312
-0.046468 0.075997 -2.887846
-0.051395 0.055503 -2.109101
-0.054886 0.055503 -2.109101
-0.063750 0.060611 -2.303190
-0.057916 0.035796 -1.360217
-0.060167 0.035796 -1.360217
-0.103160 0.059159 -2.248024
-0.109504 0.060611 -2.303190
-0.111269 0.059516 -2.261566
-0.115013 0.059516 -2.261566
-0.118757 0.059516 -2.261566
-0.043386 0.018783 -0.713726
-0.044399 0.018711 -0.711023
-0.094088 0.032714 -1.243112
-0.095828 0.032606 -1.239010
-0.097238 0.032392 -1.230885
-0.099931 0.032606 -1.239010
-0.230601 0.073728 -2.801641
-0.384414 0.120483 -4.578292
-0.391994 0.120483 -4.578292
-0.063095 0.018330 -0.696512
-0.064010 0.018262 -0.693937
-0.065159 0.018262 -0.693937
-0.080072 0.022053 -0.837991
-0.082194 0.022251 -0.845540
-0.083593 0.022251 -0.845540
-0.084612 0.022152 -0.841749
-0.086005 0.022152 -0.841749
-1.557423 0.267016 -10.146484
-1.004244 0.170338 -6.472757
-0.795509 0.133508 -5.073242
-0.668417 0.111007 -4.218201
-0.546460 0.089815 -3.412908
-0.523553 0.085169 -3.236379
-0.451129 0.072644 -2.760441
-0.389780 0.062136 -2.361132
-0.368215 0.058115 -2.208353
-0.355158 0.055503 -2.109101
-0.348850 0.053987 -2.051475
-0.327213 0.050150 -1.905685
-0.406322 0.055817 -2.121017
-0.385853 0.052551 -1.996915
-0.375189 0.050665 -1.925230
-0.378377 0.050665 -1.925230
-0.368341 0.048909 -1.858514
-0.233461 0.029058 -1.104176
-0.235289 0.029058 -1.104176
-0.130771 0.015782 -0.599712
-0.125547 0.015037 -0.571415
-0.124410 0.014790 -0.562006
-0.124040 0.014636 -0.556178
-0.123860 0.014507 -0.551277
-0.124773 0.014507 -0.551277
-0.125134 0.014444 -0.548860
-0.122986 0.014094 -0.535549
-0.123345 0.014034 -0.533267
-0.122488 0.013837 -0.525798
-0.122671 0.013760 -0.522869
-0.124578 0.013876 -0.527275
-3.143089 0.329320 -12.513997
-4.314280 0.449073 -17.064541
-3.294333 0.340676 -12.945515
-3.004911 0.308738 -11.731873
-3.024332 0.308738 -11.731873
-3.043754 0.308738 -11.731873
-0.687061 0.066306 -2.519597
-0.624203 0.059876 -2.275272
-0.588722 0.056134 -2.133068
-0.588907 0.055817 -2.121017
-0.592418 0.055817 -2.121017
-0.620468 0.058115 -2.208353
-0.646957 0.060241 -2.289146
-0.684119 0.063331 -2.406538
-0.692542 0.063739 -2.422064
-0.696552 0.063739 -2.422064
-0.691637 0.062927 -2.391210
-0.165719 0.014658 -0.557003
-0.165414 0.014550 -0.552901
-0.165841 0.014507 -0.551277
-0.166022 0.014444 -0.548860
-0.165719 0.014339 -0.544877
-0.166380 0.014318 -0.544087
-0.167038 0.014298 -0.543299
-0.167938 0.014298 -0.543299
-0.168593 0.014277 -0.542514
-0.169003 0.014236 -0.540951
-0.171380 0.014360 -0.545668
-0.262042 0.019221 -0.730389
-0.262740 0.019184 -0.728971
-0.262926 0.019109 -0.726151
-0.264640 0.019147 -0.727558
-0.265330 0.019109 -0.726151
-0.266018 0.019073 -0.724749
-0.269822 0.019258 -0.731813
-1.050853 0.070569 -2.681571
-0.618163 0.041337 -1.570795
-0.618177 0.041165 -1.564250
-0.620767 0.041165 -1.564250
-0.874886 0.057775 -2.195438
-0.878520 0.057775 -2.195438
-0.877026 0.057440 -2.182674
-0.875549 0.057108 -2.170057
-0.844952 0.054887 -2.085666
-0.839082 0.054284 -2.062747
-0.233654 0.013138 -0.499229
-0.234481 0.013138 -0.499229
-0.457238 0.025529 -0.970077
-0.458844 0.025529 -0.970077
0.671212 0.034805 -1.411353
0.715295 0.037482 -1.519919
0.500160 0.026301 -1.066534
0.498394 0.026301 -1.066534
0.773510 0.040965 -1.661150
0.770760 0.040965 -1.661150
0.768010 0.040965 -1.661150
0.765260 0.040965 -1.661150
0.863367 0.047235 -1.915408
0.626760 0.034417 -1.395613
0.624449 0.034417 -1.395613
0.629156 0.034805 -1.411353
0.677780 0.037635 -1.526097
0.651778 0.036739 -1.489762
0.629333 0.035608 -1.443923
0.478020 0.027150 -1.100938
0.476198 0.027150 -1.100938
0.472988 0.027070 -1.097719
0.457786 0.026301 -1.066534
0.442201 0.025504 -1.034215
0.421893 0.024428 -0.990554
0.414781 0.024110 -0.977656
0.413163 0.024110 -0.977656
0.375096 0.022149 -0.898134
0.369505 0.026301 -1.066534
0.366698 0.026227 -1.063513
0.360849 0.025933 -1.051596
0.359108 0.025933 -1.051596
0.356369 0.025861 -1.048659
0.327648 0.024492 -0.993174
0.310402 0.023320 -0.945642
0.308060 0.023262 -0.943266
0.304966 0.023145 -0.938550
0.758531 0.057863 -2.346375
0.784049 0.060118 -2.437792
0.790277 0.060909 -2.469868
0.818497 0.063412 -2.571369
2.750176 0.215305 -8.730696
2.721269 0.215305 -8.730696
0.461665 0.038575 -1.564250
0.466857 0.039229 -1.590762
0.470200 0.039734 -1.611244
0.482014 0.040965 -1.661150
0.483543 0.041331 -1.675982
0.482925 0.041516 -1.683497
0.473108 0.041147 -1.668533
0.263910 0.023088 -0.936209
0.263675 0.023203 -0.940902
0.267725 0.023985 -0.972590
0.266115 0.023985 -0.972590
0.169599 0.015379 -0.623621
0.168287 0.015353 -0.622587
0.141345 0.014695 -0.595905
0.138816 0.014534 -0.589356
0.137194 0.014466 -0.586594
0.135799 0.014421 -0.584766
0.134831 0.014421 -0.584766
0.269404 0.029022 -1.176865
0.330848 0.036164 -1.466484
0.328420 0.036164 -1.466484
0.327271 0.036306 -1.472235
0.330010 0.036885 -1.495697
0.332838 0.037482 -1.519919
0.333019 0.037788 -1.532326
0.333202 0.038099 -1.544938
0.333388 0.038415 -1.557759
0.354334 0.041147 -1.668533
0.867572 0.117191 -4.752151
0.859705 0.117191 -4.752151
0.717959 0.100632 -4.080651
0.276079 0.039064 -1.584050
0.270039 0.038575 -1.564250
0.267449 0.038575 -1.564250
0.201585 0.030555 -1.239010
0.198226 0.030354 -1.230885
0.191786 0.029673 -1.203269
0.187392 0.029298 -1.188038
0.112505 0.020619 -0.836125
0.110629 0.020528 -0.832417
0.208780 0.039229 -1.590762
0.206146 0.039229 -1.590762
0.196037 0.037788 -1.532326
0.188125 0.036739 -1.489762
0.175887 0.034805 -1.411353
0.166659 0.033423 -1.355307
0.353047 0.071768 -2.910232
0.340315 0.070137 -2.844090
0.307639 0.064292 -2.607083
0.285481 0.060511 -2.453725
0.276007 0.059347 -2.406538
0.265222 0.057863 -2.346375
0.261338 0.057863 -2.346375
0.262373 0.058969 -2.391210
0.118470 0.031925 -1.294551
0.107094 0.029391 -1.191809
0.103803 0.029022 -1.176865
0.081097 0.025022 -1.014648
0.072375 0.022803 -0.924680
0.070670 0.022747 -0.922408
0.069143 0.022747 -0.922408
0.066473 0.022363 -0.906811
0.054470 0.019656 -0.797070
0.052263 0.019328 -0.783758
0.050543 0.019168 -0.777267
0.049772 0.019368 -0.785397
0.048573 0.019409 -0.787044
0.047469 0.019491 -0.790358
0.046161 0.019491 -0.790358
0.044664 0.019409 -0.787044
0.042911 0.019208 -0.778880
0.041536 0.019168 -0.777267
0.020253 0.014178 -0.574916
0.019213 0.014113 -0.572286
0.018210 0.014070 -0.570547
0.017007 0.013859 -0.562006
0.015817 0.013635 -0.552901
0.014749 0.013496 -0.547259
0.013684 0.013340 -0.540951
0.012788 0.013340 -0.540951
0.011910 0.013359 -0.541731
0.011029 0.013379 -0.542514
0.010131 0.013379 -0.542514
0.007592 0.015534 -0.629899
0.006430 0.015252 -0.618484
0.005406 0.015252 -0.618484
0.004382 0.015252 -0.618484
0.003342 0.015177 -0.615443
0.002228 0.014557 -0.590283
0.001233 0.014354 -0.582046
0.000274 0.014557 -0.590283
-0.002015 0.041703 -1.691081
-0.004815 0.041703 -1.691081
-0.007614 0.041703 -1.691081
-0.011502 0.046060 -1.867761
-0.015043 0.047477 -1.925230
-0.018710 0.048727 -1.975894
-0.021752 0.048219 -1.955312
-0.024859 0.047969 -1.945181
-0.027791 0.047477 -1.925230
-0.030820 0.047235 -1.915408
-0.034342 0.047722 -1.935154
-0.142820 0.181532 -7.361175
-0.056124 0.056798 -2.303190
-0.054886 0.052012 -2.109101
-0.063750 0.056798 -2.303190
-0.942749 0.712162 -28.878456
-0.585329 0.420823 -17.064541
-0.435443 0.298649 -12.110320
-0.362057 0.237387 -9.626152
-0.327593 0.205736 -8.342665
-0.289872 0.174681 -7.083395
-0.257818 0.149324 -6.055160
-0.094088 0.030656 -1.243112
-0.095828 0.030555 -1.239010
-0.097558 0.030454 -1.234934
-0.369256 0.112904 -4.578292
-0.376835 0.112904 -4.578292
-0.389160 0.114298 -4.634814
-0.401793 0.115726 -4.692749
-0.063095 0.017176 -0.696512
-0.063657 0.017019 -0.690110
-0.064800 0.017019 -0.690110
-0.081159 0.020946 -0.849366
-0.083130 0.021089 -0.855171
-0.083972 0.020946 -0.849366
-0.084612 0.020758 -0.841749
-0.086005 0.020758 -0.841749
-1.087258 0.174681 -7.083395
-0.844147 0.134176 -5.440868
-0.692560 0.108919 -4.416705
-0.668417 0.104024 -4.218201
-0.368215 0.054459 -2.208353
-0.345454 0.050591 -2.051475
-0.324059 0.046995 -1.905685
-0.309909 0.044510 -1.804904
-0.302710 0.043061 -1.746139
-2.986547 0.420823 -17.064541
-0.826655 0.106415 -4.315171
-0.379793 0.048472 -1.965549
-0.375189 0.047477 -1.925230
-0.125547 0.014091 -0.571415
-0.123120 0.013716 -0.556178
-0.122948 0.013595 -0.551277
-0.123317 0.013535 -0.548860
-0.124773 0.013595 -0.551277
-0.125134 0.013535 -0.548860
-0.122462 0.013151 -0.533267
-0.121788 0.012985 -0.526536
-0.121805 0.012894 -0.522869
-0.122671 0.012894 -0.522869
-0.141241 0.014742 -0.597802
-0.142685 0.014789 -0.599712
-2.465031 0.243634 -9.879472
-2.773314 0.272297 -11.041762
-3.163805 0.308604 -12.513997
-3.184522 0.308604 -12.513997
-3.004911 0.289316 -11.731873
-3.024332 0.289316 -11.731873
-0.639825 0.057863 -2.346375
-0.613057 0.055108 -2.234642
-0.588722 0.052603 -2.133068
-0.588907 0.052306 -2.121017
-0.592418 0.052306 -2.121017
-0.606204 0.053208 -2.157586
-0.624124 0.054459 -2.208353
-0.675459 0.058596 -2.376076
-0.710887 0.061312 -2.486225
-0.724601 0.062135 -2.519597
-0.728772 0.062135 -2.519597
-0.165719 0.013736 -0.557003
-0.165414 0.013635 -0.552901
-0.165113 0.013535 -0.548860
-0.165057 0.013457 -0.545668
-0.165479 0.013418 -0.544087
-0.166139 0.013398 -0.543299
-0.167038 0.013398 -0.543299
-0.167938 0.013398 -0.543299
-0.168593 0.013379 -0.542514
-0.169491 0.013379 -0.542514
-0.262042 0.018012 -0.730389
-0.261724 0.017907 -0.726151
-0.262926 0.017907 -0.726151
-0.264128 0.017907 -0.726151
-0.264818 0.017873 -0.724749
-0.266018 0.017873 -0.724749
-11.793838 0.771509 -31.284992
-6.461252 0.420823 -17.064541
-0.602949 0.037943 -1.538606
-0.590964 0.037032 -1.501680
-0.603099 0.037635 -1.526097
-0.605626 0.037635 -1.526097
-0.874886 0.054141 -2.195438
-0.873412 0.053826 -2.182674
-0.871956 0.053515 -2.170057
-0.865542 0.052903 -2.145257
-0.864156 0.052603 -2.133068
-0.476174 0.025090 -1.017398
-0.471470 0.024754 -1.003797
-0.460810 0.024110 -0.977656
-0.445044 0.023203 -0.940902
-0.446602 0.023203 -0.940902
0.497684 0.024329 -1.057521
0.495933 0.024329 -1.057521
0.498394 0.024536 -1.066534
0.773510 0.038215 -1.661150
0.770760 0.038215 -1.661150
0.768010 0.038215 -1.661150
0.772093 0.038556 -1.675982
0.613116 0.031292 -1.360217
0.610864 0.031292 -1.360217
0.624449 0.032106 -1.395613
0.656296 0.033869 -1.472235
0.479843 0.025327 -1.100938
0.476623 0.025253 -1.097719
0.474806 0.025253 -1.097719
0.458249 0.024466 -1.063513
0.441481 0.023662 -1.028548
0.422418 0.022728 -0.987947
0.417487 0.022550 -0.980209
0.397197 0.021538 -0.936209
0.394663 0.021484 -0.933880
0.373601 0.020418 -0.887518
0.370380 0.020321 -0.883341
0.368052 0.020274 -0.881267
0.366593 0.020274 -0.881267
0.580400 0.032226 -1.400821
0.369505 0.024536 -1.066534
0.366698 0.024466 -1.063513
0.360849 0.024192 -1.051596
0.358105 0.024125 -1.048659
0.357367 0.024192 -1.051596
0.339318 0.023662 -1.028548
0.326004 0.022848 -0.993174
0.308836 0.021755 -0.945642
0.784049 0.056082 -2.437792
0.770013 0.055363 -2.406538
0.824142 0.059563 -2.589103
1.238324 0.089965 -3.910624
2.750176 0.200852 -8.730696
3.564729 0.261716 -11.376361
3.441605 0.254018 -11.041762
3.527063 0.261716 -11.376361
0.478202 0.037067 -1.611244
0.461665 0.035986 -1.564250
0.462933 0.036288 -1.577395
0.470200 0.037067 -1.611244
0.482014 0.038215 -1.661150
0.485712 0.038729 -1.683497
0.487295 0.039080 -1.698733
0.484483 0.039080 -1.698733
0.473108 0.038385 -1.668533
0.470345 0.038385 -1.668533
0.169599 0.014347 -0.623621
0.166903 0.014205 -0.617467
0.165881 0.014205 -0.617467
0.165677 0.014275 -0.620529
0.141570 0.013731 -0.596852
0.138816 0.013558 -0.589356
0.137194 0.013495 -0.586594
0.135799 0.013453 -0.584766
0.134831 0.013453 -0.584766
0.332314 0.034137 -1.483873
0.331167 0.034272 -1.489762
0.335354 0.034966 -1.519919
0.334191 0.035108 -1.526097
0.334383 0.035396 -1.538606
0.333202 0.035542 -1.544938
0.333388 0.035837 -1.557759
0.349671 0.037880 -1.646579
0.351571 0.038385 -1.668533
0.335727 0.041925 -1.822427
0.314395 0.039618 -1.722110
0.460780 0.060821 -2.643802
0.270039 0.035986 -1.564250
0.267449 0.035986 -1.564250
0.500522 0.068005 -2.956062
0.202925 0.028693 -1.247242
0.193778 0.027681 -1.203269
0.188168 0.027159 -1.180566
0.186213 0.027159 -1.180566
0.114287 0.019540 -0.849366
0.206171 0.035689 -1.551322
0.208780 0.036596 -1.590762
0.198573 0.035252 -1.532326
0.190591 0.034272 -1.489762
0.178224 0.032468 -1.411353
0.165908 0.030626 -1.331276
0.159188 0.029781 -1.294551
0.157045 0.029781 -1.294551
0.293605 0.056448 -2.453725
0.289543 0.056448 -2.453725
0.256933 0.050804 -2.208353
0.253277 0.050804 -2.208353
0.243882 0.049636 -2.157586
0.237580 0.049072 -2.133068
0.232726 0.048794 -2.121017
0.229215 0.048794 -2.121017
0.135152 0.032226 -1.400821
0.132833 0.032226 -1.400821
0.130514 0.032226 -1.400821
0.114521 0.028789 -1.251400
0.106755 0.027331 -1.188038
0.103479 0.026989 -1.173187
0.101537 0.026989 -1.173187
0.076323 0.022433 -0.975117
0.070844 0.021272 -0.924680
0.068139 0.020912 -0.909007
0.066153 0.020761 -0.902452
0.063891 0.020515 -0.891734
0.056885 0.019150 -0.832417
0.052926 0.018259 -0.793700
0.051072 0.018068 -0.785397
0.049772 0.018068 -0.785397
0.048573 0.018106 -0.787044
0.047270 0.018106 -0.787044
0.045967 0.018106 -0.787044
0.044571 0.018068 -0.785397
0.042734 0.017844 -0.775661
0.041365 0.017807 -0.774062
0.039433 0.017518 -0.761501
0.029477 0.016204 -0.704353
0.027841 0.015935 -0.692657
0.027145 0.016204 -0.704353
0.025268 0.015760 -0.685073
0.023001 0.015020 -0.652904
0.019302 0.013226 -0.574916
0.018266 0.013166 -0.572286
0.017319 0.013166 -0.572286
0.016077 0.012929 -0.562006
0.014901 0.012720 -0.552901
0.013823 0.012571 -0.546463
0.012807 0.012463 -0.541731
0.011910 0.012463 -0.541731
0.011029 0.012481 -0.542514
0.010145 0.012499 -0.543299
0.009313 0.012590 -0.547259
0.008673 0.012987 -0.564541
0.007750 0.013007 -0.565391
0.006804 0.012987 -0.564541
0.005950 0.013166 -0.572286
0.005327 0.014020 -0.609448
0.004361 0.014158 -0.615443
0.003342 0.014158 -0.615443
0.003525 0.021484 -0.933880
0.001233 0.013390 -0.582046
0.000642 0.031869 -1.385313
-0.001997 0.038556 -1.675982
-0.005164 0.041723 -1.813623
-0.008410 0.042968 -1.867761
-0.011502 0.042968 -1.867761
-0.015043 0.044290 -1.925230
-0.018515 0.044982 -1.955312
-0.021752 0.044982 -1.955312
-0.024604 0.044290 -1.925230
-0.027650 0.044064 -1.915408
-0.030509 0.043619 -1.896060
-0.018203 0.023597 -1.025738
-0.019528 0.023154 -1.006488
-0.021194 0.023154 -1.006488
-0.043283 0.043841 -1.905685
-0.048149 0.045456 -1.975894
-0.054276 0.047981 -2.085666
-0.114190 0.094908 -4.125494
-0.804827 0.539789 -23.463745
-0.613578 0.392574 -17.064541
-0.362057 0.221452 -9.626152
-0.327593 0.191925 -8.342665
-0.295446 0.166089 -7.219614
-0.262044 0.141584 -6.154425
-0.362950 0.107958 -4.692749
-0.318898 0.092867 -4.036773
-0.369256 0.105325 -4.578292
-0.381488 0.106625 -4.634814
-0.394025 0.107958 -4.692749
-0.428580 0.115155 -5.005599
-0.063212 0.016053 -0.697807
-0.063308 0.015789 -0.686325
-0.064444 0.015789 -0.686325
-0.065942 0.015876 -0.690110
-0.083130 0.019673 -0.855171
-0.084545 0.019673 -0.855171
-0.085378 0.019540 -0.849366
-0.692560 0.101607 -4.416705
-0.540810 0.078515 -3.412908
-0.513766 0.073817 -3.208717
-0.489775 0.069650 -3.027580
-0.367547 0.050213 -2.182674
-0.335998 0.045456 -1.975894
-0.315986 0.042336 -1.840294
-0.312897 0.041522 -1.804904
-2.986547 0.392574 -17.064541
-3.014797 0.392574 -17.064541
-2.092094 0.269894 -11.731873
-2.111516 0.269894 -11.731873
-0.545520 0.069093 -3.003359
-0.122938 0.012776 -0.555355
-0.121874 0.012571 -0.546463
-0.122422 0.012535 -0.544877
-0.139831 0.013908 -0.604541
-0.139930 0.013819 -0.600672
-0.140924 0.013819 -0.600672
-0.141692 0.013797 -0.599712
-0.142685 0.013797 -0.599712
-2.465031 0.227279 -9.879472
-2.619241 0.239906 -10.428331
-2.636504 0.239906 -10.428331
-2.985489 0.269894 -11.731873
-3.004911 0.269894 -11.731873
-0.687061 0.057964 -2.519597
-0.613057 0.051408 -2.234642
-0.585396 0.048794 -2.121017
-0.585599 0.048520 -2.109101
-0.595784 0.049072 -2.133068
-0.599315 0.049072 -2.133068
-0.609776 0.049636 -2.157586
-0.642907 0.052028 -2.261566
-0.715627 0.057577 -2.502800
-0.729497 0.058356 -2.536621
-0.912496 0.072577 -3.154789
-0.165473 0.012795 -0.556178
-0.163726 0.012590 -0.547259
-0.164153 0.012553 -0.545668
-0.164578 0.012517 -0.544087
-0.165239 0.012499 -0.543299
-0.166139 0.012499 -0.543299
-0.167038 0.012499 -0.543299
-0.167938 0.012499 -0.543299
-0.168837 0.012499 -0.543299
-0.169982 0.012517 -0.544087
-0.199508 0.014614 -0.635228
-0.259518 0.016641 -0.723352
-0.260214 0.016609 -0.721961
-0.261913 0.016641 -0.723352
-0.264128 0.016705 -0.726151
-0.265330 0.016705 -0.726151
-0.268088 0.016803 -0.730389
-11.742047 0.719718 -31.284992
-6.433002 0.392574 -17.064541
-6.180328 0.375505 -16.322605
-4.758968 0.287887 -12.513997
-4.096872 0.246761 -10.726283
-1.046414 0.061690 -2.681571
-0.565844 0.033218 -1.443923
-0.572639 0.033475 -1.455116
-0.579541 0.033737 -1.466484
-0.577457 0.033475 -1.455116
-0.869799 0.050213 -2.182674
-0.868364 0.049923 -2.170057
-0.871956 0.049923 -2.170057
-0.865542 0.049352 -2.145257
-0.475282 0.023279 -1.011914
-0.460810 0.022491 -0.977656
-0.458844 0.022317 -0.970077
0.489777 0.022141 -1.037072
0.488060 0.022141 -1.037072
0.495933 0.022578 -1.057521
0.606889 0.028025 -1.312657
0.624417 0.029467 -1.380220
0.613116 0.029040 -1.360217
0.610864 0.029040 -1.360217
0.658733 0.031432 -1.472235
0.656296 0.031432 -1.472235
0.477045 0.023368 -1.094519
0.471113 0.023165 -1.085029
0.458710 0.022642 -1.060508
0.443184 0.021959 -1.028548
0.424054 0.021092 -0.987947
0.419110 0.020927 -0.980209
0.397755 0.019938 -0.933880
0.385656 0.019407 -0.909007
0.373305 0.018859 -0.883341
0.370970 0.018815 -0.881267
0.368645 0.018771 -0.879204
0.364628 0.018640 -0.873070
0.362340 0.018597 -0.871044
0.362581 0.018683 -0.875105
0.369505 0.022770 -1.066534
0.366698 0.022706 -1.063513
0.359841 0.022389 -1.048659
0.357107 0.022326 -1.045738
0.339318 0.021959 -1.028548
0.326869 0.021260 -0.995809
0.326955 0.021374 -1.001120
0.769067 0.051052 -2.391210
0.765109 0.051052 -2.391210
1.219393 0.081787 -3.830816
1.225557 0.082630 -3.870308
1.231850 0.083491 -3.910624
2.735723 0.186398 -8.730696
3.441605 0.235739 -11.041762
1.097026 0.079358 -3.717029
0.481127 0.035001 -1.639388
0.495732 0.036268 -1.698733
0.497421 0.036599 -1.714246
0.503785 0.037280 -1.746139
0.500894 0.037280 -1.746139
0.484483 0.036268 -1.698733
0.473108 0.035623 -1.668533
0.299795 0.022706 -1.063513
0.296356 0.022578 -1.057521
0.168374 0.013381 -0.626744
0.165677 0.013248 -0.620529
0.141570 0.012743 -0.596852
0.138599 0.012563 -0.588432
0.137194 0.012524 -0.586594
0.135799 0.012485 -0.584766
0.134831 0.012485 -0.584766
0.134281 0.012524 -0.586594
0.337438 0.031933 -1.495697
0.333633 0.031806 -1.489762
0.333816 0.032061 -1.501680
0.339478 0.032849 -1.538606
0.338317 0.032984 -1.544938
0.335759 0.032984 -1.544938
0.337367 0.033396 -1.564250
0.339015 0.033819 -1.584050
0.339256 0.034107 -1.597532
0.351571 0.035623 -1.668533
0.314362 0.036432 -1.706454
0.307346 0.035942 -1.683497
0.305931 0.036104 -1.691081
0.515203 0.063111 -2.956062
0.514359 0.063612 -2.979523
0.505415 0.063111 -2.956062
0.496612 0.062618 -2.932968
0.466258 0.059371 -2.780888
0.127820 0.016945 -0.793700
0.126506 0.016945 -0.793700
0.203603 0.033120 -1.551322
0.193057 0.031806 -1.489762
0.187613 0.031309 -1.466484
0.178224 0.030132 -1.411353
0.171377 0.029359 -1.375165
0.161414 0.028025 -1.312657
0.155437 0.027355 -1.281297
0.279016 0.049783 -2.331801
0.275155 0.049783 -2.331801
0.256933 0.047148 -2.208353
0.239206 0.044528 -2.085666
0.221019 0.041745 -1.955312
0.216653 0.041529 -1.945181
0.213433 0.041529 -1.945181
0.204904 0.040480 -1.896060
0.201766 0.040480 -1.896060
0.157410 0.033677 -1.577395
0.150376 0.032715 -1.532326
0.135152 0.029907 -1.400821
0.132833 0.029907 -1.400821
0.111704 0.026540 -1.243112
0.104789 0.025364 -1.188038
0.102822 0.025364 -1.188038
0.071372 0.019889 -0.931563
0.068139 0.019407 -0.909007
0.065213 0.018993 -0.889621
0.062846 0.018727 -0.877149
0.054186 0.017349 -0.812597
0.051286 0.016839 -0.788697
0.049772 0.016768 -0.785397
0.048471 0.016768 -0.785397
0.047171 0.016768 -0.785397
0.045871 0.016768 -0.785397
0.044385 0.016698 -0.782125
0.042646 0.016526 -0.774062
0.040529 0.016192 -0.758424
0.038344 0.015809 -0.740473
0.035777 0.015238 -0.713726
0.034335 0.015123 -0.708339
0.032669 0.014898 -0.697807
0.030939 0.014626 -0.685073
0.029482 0.014468 -0.677653
0.028360 0.014468 -0.677653
0.027238 0.014468 -0.677653
0.026402 0.014626 -0.685073
0.024815 0.014364 -0.672796
0.023284 0.014111 -0.660951
0.021844 0.013891 -0.650641
0.020767 0.013891 -0.650641
0.019622 0.013843 -0.648394
0.018645 0.013915 -0.651771
0.012918 0.011667 -0.546463
0.011927 0.011583 -0.542514
0.011045 0.011599 -0.543299
0.010145 0.011599 -0.543299
0.009313 0.011684 -0.547259
0.008673 0.012053 -0.564541
0.007738 0.012053 -0.564541
0.006763 0.011981 -0.561166
0.005834 0.011981 -0.561166
0.004950 0.012089 -0.566244
0.004243 0.012783 -0.598756
0.003251 0.012783 -0.598756
0.003516 0.019889 -0.931563
0.001974 0.019889 -0.931563
0.000642 0.029576 -1.385313
-0.008410 0.039876 -1.867761
-0.011168 0.038720 -1.813623
-0.014966 0.040893 -1.915408
-0.018230 0.041103 -1.925230
-0.021417 0.041103 -1.925230
-0.024479 0.040893 -1.915408
-0.014113 0.020873 -0.977656
-0.015897 0.021092 -0.987947
-0.017719 0.021317 -0.998457
-0.019372 0.021317 -0.998457
-0.021366 0.021663 -1.014648
-0.023108 0.021721 -1.017398
-0.047647 0.041745 -1.955312
-0.107360 0.088078 -4.125494
-1.361748 0.890570 -41.713326
-0.919802 0.572509 -26.815708
-0.964194 0.572509 -26.815708
-1.008587 0.572509 -26.815708
-0.370719 0.100189 -4.692749
-0.369256 0.097745 -4.578292
-0.396160 0.102758 -4.813076
-0.420293 0.106868 -5.005599
-0.063805 0.015038 -0.704353
-0.064010 0.014815 -0.693937
-0.064919 0.014761 -0.691381
-0.066063 0.014761 -0.691381
-0.067332 0.014788 -0.692657
-0.068605 0.014815 -0.693937
-0.085961 0.018258 -0.855171
-0.325712 0.040893 -1.915408
-0.304062 0.037807 -1.770849
-0.286707 0.035309 -1.653832
-0.513313 0.062618 -2.932968
-0.518168 0.062618 -2.932968
-0.523024 0.062618 -2.932968
-0.527879 0.062618 -2.932968
-0.532734 0.062618 -2.932968
-0.812368 0.092128 -4.315171
-0.819511 0.092128 -4.315171
-0.826655 0.092128 -4.315171
-0.165951 0.015209 -0.712372
-0.141832 0.012907 -0.604541
-0.142374 0.012865 -0.602600
-0.143834 0.012907 -0.604541
-2.531653 0.216625 -10.146484
-2.773314 0.235739 -11.041762
-2.876187 0.242883 -11.376361
-5.970978 0.500945 -23.463745
-0.591917 0.046064 -2.157586
-0.585396 0.045283 -2.121017
-0.588907 0.045283 -2.121017
-0.595784 0.045540 -2.133068
-0.602740 0.045801 -2.145257
-0.602847 0.045540 -2.133068
-0.616893 0.046330 -2.170057
-0.720430 0.053793 -2.519597
-0.936095 0.069096 -3.236379
-0.162306 0.011583 -0.542514
-0.162266 0.011516 -0.539396
-0.163159 0.011516 -0.539396
-0.164525 0.011549 -0.540951
-0.166139 0.011599 -0.543299
-0.167038 0.011599 -0.543299
-0.167938 0.011599 -0.543299
-0.169082 0.011616 -0.544087
-0.170229 0.011633 -0.544877
-0.200186 0.013608 -0.637385
-0.567133 0.038350 -1.796268
-0.570107 0.038350 -1.796268
-0.573081 0.038350 -1.796268
-0.295304 0.017654 -0.826916
-0.259518 0.015443 -0.723352
-0.260214 0.015414 -0.721961
-0.261913 0.015443 -0.723352
-0.264128 0.015503 -0.726151
-0.265330 0.015503 -0.726151
-0.268088 0.015594 -0.730389
-12.809505 0.728648 -34.129082
-7.862559 0.445285 -20.856663
-6.461252 0.364324 -17.064541
-7.931613 0.445285 -20.856663
-0.211397 0.011566 -0.541731
-0.212294 0.011566 -0.541731
-0.549223 0.029796 -1.395613
-0.570625 0.030827 -1.443923
-0.573015 0.030827 -1.443923
-0.586688 0.031432 -1.472235
-0.873412 0.046600 -2.182674
-0.877026 0.046600 -2.182674
-0.860625 0.045540 -2.133068
-0.864156 0.045540 -2.133068
-0.475282 0.021604 -1.011914
-0.460810 0.020873 -0.977656
-0.446162 0.020139 -0.943266
-0.447724 0.020139 -0.943266
0.480867 0.019983 -1.014648
0.479187 0.019983 -1.014648
0.488060 0.020424 -1.037072
0.629014 0.027283 -1.385313
0.624417 0.027182 -1.380220
0.622132 0.027182 -1.380220
0.483082 0.021746 -1.104176
0.477045 0.021556 -1.094519
0.471113 0.021369 -1.085029
0.456133 0.020769 -1.054550
0.439571 0.020091 -1.020163
0.420732 0.019305 -0.980209
0.390557 0.017989 -0.913430
0.384369 0.017773 -0.902452
0.373012 0.017315 -0.879204
0.370688 0.017275 -0.877149
0.367519 0.017194 -0.873070
0.366073 0.017194 -0.873070
0.363782 0.017155 -0.871044
0.362340 0.017155 -0.871044
0.407483 0.020091 -1.020163
0.363608 0.020769 -1.054550
0.358838 0.020595 -1.045738
0.307438 0.017731 -0.900288
0.305947 0.017731 -0.900288
0.337615 0.020257 -1.028548
0.330480 0.019929 -1.011914
1.372086 0.084019 -4.266135
1.225735 0.075445 -3.830816
1.244797 0.077017 -3.910624
1.238324 0.077017 -3.910624
1.231850 0.077017 -3.910624
1.264904 0.079501 -4.036773
3.545897 0.224050 -11.376361
1.097026 0.073204 -3.717029
0.522171 0.035041 -1.779241
0.519226 0.035041 -1.779241
0.516281 0.035041 -1.779241
0.513335 0.035041 -1.779241
0.510390 0.035041 -1.779241
0.512300 0.035376 -1.796268
0.514247 0.035718 -1.813623
0.170365 0.012489 -0.634155
0.167336 0.012343 -0.626744
0.166856 0.012385 -0.628844
0.141121 0.011717 -0.594960
0.138599 0.011589 -0.588432
0.136980 0.011535 -0.585679
0.135799 0.011517 -0.584766
0.134831 0.011517 -0.584766
0.134281 0.011553 -0.586594
0.330692 0.028657 -1.455116
0.336099 0.029340 -1.489762
0.333633 0.029340 -1.489762
