ply
format ascii 1.0
element vertex 1619
property float32 x
property float32 y
property float32 z
element face 0
property list uint8 int32 vertex_indices
end_header
0.252569 -0.352053 -0.955072
0.249136 -0.349453 -0.948018
0.247203 -0.348937 -0.946620
0.297965 -0.443033 -1.201888
0.287890 -0.430928 -1.169050
0.280340 -0.422463 -1.146086
0.276470 -0.419467 -1.137958
0.275566 -0.420960 -1.142008
0.201707 -0.314600 -0.853469
0.200296 -0.314600 -0.853469
0.198885 -0.314600 -0.853469
0.187594 -0.314600 -0.853469
0.186183 -0.314600 -0.853469
0.184772 -0.314600 -0.853469
0.183360 -0.314600 -0.853469
0.181949 -0.314600 -0.853469
0.180538 -0.314600 -0.853469
0.233009 -0.448067 -1.215546
0.227551 -0.441379 -1.197404
0.221846 -0.434091 -1.177630
0.217899 -0.430144 -1.166924
0.212873 -0.423977 -1.150194
0.209843 -0.421710 -1.144044
0.205751 -0.417248 -1.131937
0.203879 -0.417248 -1.131937
0.115617 -0.314600 -0.853469
0.114206 -0.314600 -0.853469
0.112795 -0.314600 -0.853469
0.111383 -0.314600 -0.853469
0.109972 -0.314600 -0.853469
0.108561 -0.314600 -0.853469
0.107149 -0.314600 -0.853469
0.105738 -0.314600 -0.853469
0.104327 -0.314600 -0.853469
0.102915 -0.314600 -0.853469
0.101504 -0.314600 -0.853469
0.100093 -0.314600 -0.853469
0.098681 -0.314600 -0.853469
0.033905 -0.421710 -1.144044
0.032013 -0.421710 -1.144044
0.004196 -0.320135 -0.868482
0.002712 -0.314600 -0.853469
0.001301 -0.314600 -0.853469
-0.000110 -0.314600 -0.853469
-0.001522 -0.314600 -0.853469
-0.002933 -0.314600 -0.853469
-0.004344 -0.314600 -0.853469
-0.005756 -0.314600 -0.853469
-0.007167 -0.314600 -0.853469
-0.008578 -0.314600 -0.853469
-0.009990 -0.314600 -0.853469
-0.011401 -0.314600 -0.853469
-0.045810 -0.407193 -1.104662
-0.038927 -0.332742 -0.902684
-0.039970 -0.329040 -0.892640
-0.041331 -0.328127 -0.890164
-0.042803 -0.328127 -0.890164
-0.044031 -0.326316 -0.885253
-0.046653 -0.334624 -0.907791
-0.047549 -0.330418 -0.896380
-0.049585 -0.334152 -0.906509
-0.050513 -0.330418 -0.896380
-0.051707 -0.328582 -0.891401
-0.053181 -0.328582 -0.891401
-0.054655 -0.328582 -0.891401
-0.054538 -0.319270 -0.866138
-0.055152 -0.314600 -0.853469
-0.056563 -0.314600 -0.853469
-0.057974 -0.314600 -0.853469
-0.059386 -0.314600 -0.853469
-0.060797 -0.314600 -0.853469
-0.062208 -0.314600 -0.853469
-0.063620 -0.314600 -0.853469
-0.065031 -0.314600 -0.853469
-0.086092 -0.368504 -0.999702
-0.084583 -0.355224 -0.963676
-0.086177 -0.355224 -0.963676
-0.100534 -0.399627 -1.084136
-0.086663 -0.338454 -0.918181
-0.087555 -0.336050 -0.911660
-0.088435 -0.333680 -0.905231
-0.089302 -0.331344 -0.898891
-0.088435 -0.322755 -0.875591
-0.089883 -0.322755 -0.875591
-0.097946 -0.330418 -0.896380
-0.097924 -0.325419 -0.882818
-0.098168 -0.321439 -0.872022
-0.097491 -0.314600 -0.853469
-0.098902 -0.314600 -0.853469
-0.100314 -0.314600 -0.853469
-0.101725 -0.314600 -0.853469
-0.103136 -0.314600 -0.853469
-0.104548 -0.314600 -0.853469
-0.105959 -0.314600 -0.853469
-0.107370 -0.314600 -0.853469
-0.132798 -0.384057 -1.041897
-0.134521 -0.384057 -1.041897
-0.134713 -0.379742 -1.030190
-0.135116 -0.376120 -1.020363
-0.135085 -0.371396 -1.007549
-0.136110 -0.369655 -1.002826
-0.137984 -0.370234 -1.004395
-0.127129 -0.314600 -0.853469
-0.128540 -0.314600 -0.853469
-0.129951 -0.314600 -0.853469
-0.131363 -0.314600 -0.853469
-0.132774 -0.314600 -0.853469
-0.134185 -0.314600 -0.853469
-0.135597 -0.314600 -0.853469
-0.137008 -0.314600 -0.853469
-0.138419 -0.314600 -0.853469
-0.156477 -0.352053 -0.955072
-0.153944 -0.314600 -0.853469
-0.155355 -0.314600 -0.853469
-0.156766 -0.314600 -0.853469
-0.158178 -0.314600 -0.853469
-0.159589 -0.314600 -0.853469
-0.161000 -0.314600 -0.853469
-0.162412 -0.314600 -0.853469
-0.192205 -0.362852 -0.984369
-0.194149 -0.327672 -0.888931
-0.194810 -0.326316 -0.885253
-0.195465 -0.324972 -0.881605
-0.196923 -0.324972 -0.881605
-0.196491 -0.321877 -0.873209
-0.266396 -0.412159 -1.118133
-0.267314 -0.410728 -1.114251
-0.267762 -0.408600 -1.108477
-0.268667 -0.407193 -1.104662
-0.297535 -0.414325 -1.124008
-0.298348 -0.412879 -1.120085
-0.297090 -0.408600 -1.108477
-0.298923 -0.408600 -1.108477
-0.259907 -0.353104 -0.957923
-0.257645 -0.347911 -0.943836
-0.250726 -0.336528 -0.912956
-0.248349 -0.331344 -0.898891
-0.247754 -0.328582 -0.891401
-0.248538 -0.327672 -0.888931
-0.247947 -0.324972 -0.881605
-0.267584 -0.318840 -0.864971
-0.265437 -0.314600 -0.853469
-0.266849 -0.314600 -0.853469
-0.268260 -0.314600 -0.853469
-0.269671 -0.314600 -0.853469
-0.279404 -0.319270 -0.866138
-0.276728 -0.314600 -0.853469
-0.278139 -0.314600 -0.853469
-0.282556 -0.317983 -0.862646
-0.772884 -0.649943 -1.763210
-0.771560 -0.646392 -1.753575
-0.778715 -0.649943 -1.763210
-0.419251 -0.333680 -0.905231
-0.420748 -0.333680 -0.905231
-0.418117 -0.330418 -0.896380
-0.419599 -0.330418 -0.896380
-0.414710 -0.325419 -0.882818
-0.408859 -0.319702 -0.867309
-0.403746 -0.314600 -0.853469
-0.405157 -0.314600 -0.853469
-0.406569 -0.314600 -0.853469
-0.412922 -0.318411 -0.863807
-0.414350 -0.318411 -0.863807
-0.410803 -0.314600 -0.853469
-0.412214 -0.314600 -0.853469
0.520588 -0.552653 -1.492578
0.296265 -0.316012 -0.853469
0.294854 -0.316012 -0.853469
0.570204 -0.614059 -1.658420
0.282152 -0.316012 -0.853469
0.280741 -0.316012 -0.853469
0.279330 -0.316012 -0.853469
0.277918 -0.316012 -0.853469
0.276507 -0.316012 -0.853469
0.275096 -0.316012 -0.853469
0.361071 -0.416914 -1.125980
0.358580 -0.416183 -1.124008
0.356098 -0.415456 -1.122043
0.352394 -0.413288 -1.116189
0.348729 -0.411143 -1.110395
0.266628 -0.316012 -0.853469
0.265216 -0.316012 -0.853469
0.263805 -0.316012 -0.853469
0.262394 -0.316012 -0.853469
0.260983 -0.316012 -0.853469
0.264495 -0.322006 -0.869659
0.279834 -0.354159 -0.956495
0.293457 -0.377807 -1.020363
0.291307 -0.377207 -1.018744
0.290544 -0.378409 -1.021988
0.288854 -0.378409 -1.021988
0.287622 -0.379012 -1.023618
0.234168 -0.316012 -0.853469
0.303350 -0.411856 -1.112320
0.259659 -0.354688 -0.957923
0.258075 -0.354688 -0.957923
0.256108 -0.354159 -0.956495
0.254148 -0.353632 -0.955072
0.251074 -0.351540 -0.949421
0.249136 -0.351020 -0.948018
0.310953 -0.440892 -1.190739
0.302216 -0.448379 -1.210959
0.291416 -0.435239 -1.175473
0.289472 -0.435239 -1.175473
0.281850 -0.426644 -1.152259
0.278445 -0.424358 -1.146086
0.275076 -0.422097 -1.139979
0.273191 -0.422097 -1.139979
0.268918 -0.418382 -1.129944
0.201707 -0.316012 -0.853469
0.200296 -0.316012 -0.853469
0.198885 -0.316012 -0.853469
0.187594 -0.316012 -0.853469
0.186183 -0.316012 -0.853469
0.184772 -0.316012 -0.853469
0.183360 -0.316012 -0.853469
0.181949 -0.316012 -0.853469
0.180538 -0.316012 -0.853469
0.239556 -0.458766 -1.239012
0.229531 -0.443360 -1.197404
0.223793 -0.436038 -1.177630
0.220230 -0.432861 -1.169050
0.215548 -0.427411 -1.154332
0.211358 -0.422848 -1.142008
0.207990 -0.419860 -1.133937
0.204668 -0.416914 -1.125980
0.112795 -0.316012 -0.853469
0.111383 -0.316012 -0.853469
0.109972 -0.316012 -0.853469
0.108561 -0.316012 -0.853469
0.107149 -0.316012 -0.853469
0.105738 -0.316012 -0.853469
0.104327 -0.316012 -0.853469
0.102915 -0.316012 -0.853469
0.101504 -0.316012 -0.853469
0.100093 -0.316012 -0.853469
0.098681 -0.316012 -0.853469
0.097270 -0.316012 -0.853469
0.046439 -0.474333 -1.281055
0.043969 -0.470576 -1.270908
0.041215 -0.463237 -1.251089
0.038106 -0.450931 -1.217853
0.033905 -0.423602 -1.144044
0.031842 -0.421349 -1.137958
0.029593 -0.416183 -1.124008
0.004684 -0.358974 -0.969499
0.002897 -0.337558 -0.911660
0.001357 -0.329599 -0.890164
-0.000113 -0.322881 -0.872022
-0.001540 -0.319839 -0.863807
-0.002933 -0.316012 -0.853469
-0.004344 -0.316012 -0.853469
-0.005756 -0.316012 -0.853469
-0.007167 -0.316012 -0.853469
-0.008578 -0.316012 -0.853469
-0.009990 -0.316012 -0.853469
-0.011401 -0.316012 -0.853469
-0.045810 -0.409020 -1.104662
-0.038927 -0.334234 -0.902684
-0.039970 -0.330516 -0.892640
-0.041331 -0.329599 -0.890164
-0.042803 -0.329599 -0.890164
-0.044337 -0.330057 -0.891401
-0.046587 -0.335651 -0.906509
-0.047682 -0.332830 -0.898891
-0.049585 -0.335651 -0.906509
-0.051084 -0.335651 -0.906509
-0.052807 -0.337079 -0.910367
-0.054312 -0.337079 -0.910367
-0.054909 -0.322881 -0.872022
-0.055152 -0.316012 -0.853469
-0.056563 -0.316012 -0.853469
-0.057974 -0.316012 -0.853469
-0.059386 -0.316012 -0.853469
-0.060797 -0.316012 -0.853469
-0.062208 -0.316012 -0.853469
-0.063620 -0.316012 -0.853469
-0.065031 -0.316012 -0.853469
-0.084583 -0.356818 -0.963676
-0.086177 -0.356818 -0.963676
-0.100438 -0.408317 -1.102764
-0.102262 -0.408317 -1.102764
-0.087794 -0.344407 -0.930157
-0.087555 -0.337558 -0.911660
-0.086963 -0.329599 -0.890164
-0.087106 -0.324646 -0.876787
-0.088075 -0.322881 -0.872022
-0.098496 -0.333765 -0.901416
-0.098059 -0.327329 -0.884034
-0.098436 -0.323761 -0.874398
-0.097491 -0.316012 -0.853469
-0.098902 -0.316012 -0.853469
-0.100314 -0.316012 -0.853469
-0.101725 -0.316012 -0.853469
-0.103136 -0.316012 -0.853469
-0.104548 -0.316012 -0.853469
-0.105959 -0.316012 -0.853469
-0.107370 -0.316012 -0.853469
-0.133666 -0.388302 -1.048707
-0.134521 -0.385780 -1.041897
-0.134497 -0.380834 -1.028539
-0.135116 -0.377807 -1.020363
-0.135297 -0.373649 -1.009133
-0.136751 -0.373062 -1.007549
-0.125717 -0.316012 -0.853469
-0.127129 -0.316012 -0.853469
-0.128540 -0.316012 -0.853469
-0.129951 -0.316012 -0.853469
-0.131363 -0.316012 -0.853469
-0.132774 -0.316012 -0.853469
-0.134185 -0.316012 -0.853469
-0.135597 -0.316012 -0.853469
-0.137008 -0.316012 -0.853469
-0.138419 -0.316012 -0.853469
-0.157179 -0.355218 -0.959355
-0.152532 -0.316012 -0.853469
-0.153944 -0.316012 -0.853469
-0.155355 -0.316012 -0.853469
-0.156766 -0.316012 -0.853469
-0.158178 -0.316012 -0.853469
-0.159589 -0.316012 -0.853469
-0.161000 -0.316012 -0.853469
-0.162412 -0.316012 -0.853469
-0.194149 -0.329142 -0.888931
-0.195349 -0.328687 -0.887702
-0.196003 -0.327329 -0.884034
-0.197737 -0.327780 -0.885253
-0.267779 -0.413288 -1.116189
-0.301763 -0.422097 -1.139979
-0.299393 -0.416183 -1.124008
-0.300725 -0.415456 -1.122043
-0.299440 -0.411143 -1.110395
-0.247004 -0.337079 -0.910367
-0.244691 -0.331900 -0.896380
-0.246863 -0.332830 -0.898891
-0.248002 -0.332365 -0.897634
-0.247754 -0.330057 -0.891401
-0.245142 -0.324646 -0.876787
-0.245920 -0.323761 -0.874398
-0.245360 -0.321136 -0.867309
-0.267584 -0.320271 -0.864971
-0.268653 -0.319839 -0.863807
-0.266849 -0.316012 -0.853469
-0.268260 -0.316012 -0.853469
-0.358291 -0.419860 -1.133937
-0.279781 -0.321136 -0.867309
-0.276728 -0.316012 -0.853469
-0.278139 -0.316012 -0.853469
-0.284084 -0.321136 -0.867309
-0.793961 -0.673203 -1.818154
-0.783648 -0.661952 -1.787767
-0.767367 -0.645763 -1.744045
-0.770251 -0.645763 -1.744045
-0.419288 -0.332830 -0.898891
-0.419599 -0.331900 -0.896380
-0.414710 -0.326879 -0.882818
-0.408859 -0.321136 -0.867309
-0.403746 -0.316012 -0.853469
-0.405157 -0.316012 -0.853469
-0.406569 -0.316012 -0.853469
-0.412922 -0.319839 -0.863807
-0.414350 -0.319839 -0.863807
-0.410803 -0.316012 -0.853469
-0.412214 -0.316012 -0.853469
0.520588 -0.555121 -1.492578
0.296265 -0.317423 -0.853469
0.294854 -0.317423 -0.853469
0.570204 -0.616801 -1.658420
0.283564 -0.317423 -0.853469
0.282152 -0.317423 -0.853469
0.280741 -0.317423 -0.853469
0.279330 -0.317423 -0.853469
0.277918 -0.317423 -0.853469
0.372640 -0.427781 -1.150194
0.370738 -0.427781 -1.150194
0.365561 -0.423982 -1.139979
0.361748 -0.421735 -1.133937
0.356722 -0.418042 -1.124008
0.352394 -0.415134 -1.116189
0.268039 -0.317423 -0.853469
0.266628 -0.317423 -0.853469
0.265216 -0.317423 -0.853469
0.263805 -0.317423 -0.853469
0.262394 -0.317423 -0.853469
0.266294 -0.323883 -0.870839
0.500507 -0.612056 -1.645663
0.284498 -0.361670 -0.972437
0.282890 -0.361670 -0.972437
0.284297 -0.365547 -0.982861
0.283105 -0.366107 -0.984369
0.291770 -0.379494 -1.020363
0.291008 -0.380705 -1.023618
0.289315 -0.380705 -1.023618
0.301510 -0.413695 -1.112320
0.258075 -0.356272 -0.957923
0.255727 -0.355211 -0.955072
0.254148 -0.355211 -0.955072
0.252569 -0.355211 -0.955072
0.308910 -0.437183 -1.175473
0.310953 -0.442861 -1.190739
0.303361 -0.452087 -1.215546
0.292487 -0.438790 -1.179795
0.289472 -0.437183 -1.175473
0.287003 -0.436384 -1.173324
0.279945 -0.428549 -1.152259
0.276550 -0.426254 -1.146086
0.274655 -0.426254 -1.146086
0.269868 -0.421735 -1.133937
0.201707 -0.317423 -0.853469
0.200296 -0.317423 -0.853469
0.186183 -0.317423 -0.853469
0.184772 -0.317423 -0.853469
0.183360 -0.317423 -0.853469
0.181949 -0.317423 -0.853469
0.243654 -0.460815 -1.239012
0.241605 -0.460815 -1.239012
0.234132 -0.450381 -1.210959
0.224505 -0.435588 -1.171183
0.221759 -0.434004 -1.166924
0.217457 -0.429320 -1.154332
0.213627 -0.425494 -1.144044
0.210236 -0.422481 -1.135944
0.208358 -0.422481 -1.135944
0.108561 -0.317423 -0.853469
0.107149 -0.317423 -0.853469
0.105738 -0.317423 -0.853469
0.104327 -0.317423 -0.853469
0.102915 -0.317423 -0.853469
0.101504 -0.317423 -0.853469
0.100093 -0.317423 -0.853469
0.098681 -0.317423 -0.853469
0.097270 -0.317423 -0.853469
0.048557 -0.476451 -1.281055
0.045441 -0.466215 -1.253532
0.043199 -0.464401 -1.248654
0.040120 -0.452945 -1.217853
0.037890 -0.450381 -1.210959
0.034836 -0.437183 -1.175473
0.031842 -0.423231 -1.137958
0.029593 -0.418042 -1.124008
0.027686 -0.417311 -1.122043
0.025696 -0.415134 -1.116189
0.004684 -0.360577 -0.969499
0.002969 -0.347456 -0.934219
0.001412 -0.344447 -0.926130
-0.000118 -0.339065 -0.911660
-0.004344 -0.317423 -0.853469
-0.005756 -0.317423 -0.853469
-0.007167 -0.317423 -0.853469
-0.008578 -0.317423 -0.853469
-0.009990 -0.317423 -0.853469
-0.011401 -0.317423 -0.853469
-0.038927 -0.335727 -0.902684
-0.040420 -0.335727 -0.902684
-0.041331 -0.331071 -0.890164
-0.042862 -0.331531 -0.891401
-0.044460 -0.332454 -0.893884
-0.046325 -0.335256 -0.901416
-0.047816 -0.335256 -0.901416
-0.049585 -0.337150 -0.906509
-0.053188 -0.351032 -0.943836
-0.054318 -0.320836 -0.862646
-0.055152 -0.317423 -0.853469
-0.056563 -0.317423 -0.853469
-0.057974 -0.317423 -0.853469
-0.059386 -0.317423 -0.853469
-0.060797 -0.317423 -0.853469
-0.062208 -0.317423 -0.853469
-0.063620 -0.317423 -0.853469
-0.065031 -0.317423 -0.853469
-0.098615 -0.410141 -1.102764
-0.100438 -0.410141 -1.102764
-0.102262 -0.410141 -1.102764
-0.088435 -0.336674 -0.905231
-0.088435 -0.331071 -0.890164
-0.098496 -0.335256 -0.901416
-0.098059 -0.328791 -0.884034
-0.098436 -0.325207 -0.874398
-0.097491 -0.317423 -0.853469
-0.098902 -0.317423 -0.853469
-0.100314 -0.317423 -0.853469
-0.101725 -0.317423 -0.853469
-0.103136 -0.317423 -0.853469
-0.104548 -0.317423 -0.853469
-0.105959 -0.317423 -0.853469
-0.133238 -0.393898 -1.059090
-0.134767 -0.393249 -1.057345
-0.134303 -0.386875 -1.040208
-0.134282 -0.381923 -1.026893
-0.134262 -0.377096 -1.013915
-0.135510 -0.375909 -1.010722
-0.132202 -0.349491 -0.939690
-0.125717 -0.317423 -0.853469
-0.127129 -0.317423 -0.853469
-0.128540 -0.317423 -0.853469
-0.134563 -0.321701 -0.864971
-0.137102 -0.324323 -0.872022
-0.135597 -0.317423 -0.853469
-0.137008 -0.317423 -0.853469
-0.138419 -0.317423 -0.853469
-0.152532 -0.317423 -0.853469
-0.153944 -0.317423 -0.853469
-0.155355 -0.317423 -0.853469
-0.156766 -0.317423 -0.853469
-0.158178 -0.317423 -0.853469
-0.159589 -0.317423 -0.853469
-0.161000 -0.317423 -0.853469
-0.162412 -0.317423 -0.853469
-0.195619 -0.330612 -0.888931
-0.196816 -0.330155 -0.887702
-0.303109 -0.423231 -1.137958
-0.304451 -0.422481 -1.135944
-0.302581 -0.417311 -1.122043
-0.247004 -0.338584 -0.910367
-0.244010 -0.332454 -0.893884
-0.244806 -0.331531 -0.891401
-0.246280 -0.331531 -0.891401
-0.245031 -0.327887 -0.881605
-0.244474 -0.325207 -0.874398
-0.242941 -0.321268 -0.863807
-0.241445 -0.317423 -0.853469
-0.242856 -0.317423 -0.853469
-0.270840 -0.323883 -0.870839
-0.279781 -0.322570 -0.867309
-0.276728 -0.317423 -0.853469
-0.278139 -0.317423 -0.853469
-0.796217 -0.678131 -1.823319
-0.790252 -0.670511 -1.802833
-0.786604 -0.664908 -1.787767
-0.789561 -0.664908 -1.787767
-0.421033 -0.338105 -0.909077
-0.422536 -0.338105 -0.909077
-0.419288 -0.334317 -0.898891
-0.419599 -0.333383 -0.896380
-0.415282 -0.328791 -0.884034
-0.409412 -0.323007 -0.868482
-0.403746 -0.317423 -0.853469
-0.405157 -0.317423 -0.853469
-0.406569 -0.317423 -0.853469
-0.412922 -0.321268 -0.863807
-0.414350 -0.321268 -0.863807
-0.410803 -0.317423 -0.853469
-0.412214 -0.317423 -0.853469
0.296265 -0.318834 -0.853469
0.294854 -0.318834 -0.853469
0.617855 -0.681146 -1.823319
0.614840 -0.681146 -1.823319
0.611825 -0.681146 -1.823319
0.284975 -0.318834 -0.853469
0.283564 -0.318834 -0.853469
0.282152 -0.318834 -0.853469
0.280741 -0.318834 -0.853469
0.279330 -0.318834 -0.853469
0.382774 -0.439127 -1.175473
0.378060 -0.435933 -1.166924
0.370738 -0.429683 -1.150194
0.365561 -0.425867 -1.139979
0.363031 -0.425112 -1.137958
0.357347 -0.420637 -1.125980
0.269450 -0.318834 -0.853469
0.268039 -0.318834 -0.853469
0.266628 -0.318834 -0.853469
0.265216 -0.318834 -0.853469
0.263805 -0.318834 -0.853469
0.267734 -0.325323 -0.870839
0.503228 -0.614778 -1.645663
0.501793 -0.616358 -1.649893
0.506883 -0.626014 -1.675740
0.514867 -0.639369 -1.711489
0.286361 -0.367735 -0.984369
0.284733 -0.367735 -0.984369
0.293457 -0.381182 -1.020363
0.292700 -0.382398 -1.023618
0.291008 -0.382398 -1.023618
0.259659 -0.357856 -0.957923
0.258075 -0.357856 -0.957923
0.256491 -0.357856 -0.957923
0.314526 -0.441553 -1.181968
0.312571 -0.441553 -1.181968
0.308910 -0.439127 -1.175473
0.307529 -0.439933 -1.177630
0.369273 -0.531626 -1.423079
0.335209 -0.498468 -1.334321
0.304514 -0.455824 -1.220168
0.293026 -0.441553 -1.181968
0.291071 -0.441553 -1.181968
0.287528 -0.439127 -1.175473
0.282993 -0.435142 -1.164807
0.276550 -0.428149 -1.146086
0.274655 -0.428149 -1.146086
0.269868 -0.423610 -1.133937
0.201707 -0.318834 -0.853469
0.200296 -0.318834 -0.853469
0.186183 -0.318834 -0.853469
0.184772 -0.318834 -0.853469
0.183360 -0.318834 -0.853469
0.181949 -0.318834 -0.853469
0.245702 -0.462864 -1.239012
0.238137 -0.452384 -1.210959
0.236134 -0.452384 -1.210959
0.225618 -0.435933 -1.166924
0.221673 -0.432006 -1.156412
0.219366 -0.431229 -1.154332
0.215135 -0.426625 -1.142008
0.212115 -0.424360 -1.135944
0.210236 -0.424360 -1.135944
0.253166 -0.515620 -1.380233
0.105738 -0.318834 -0.853469
0.104327 -0.318834 -0.853469
0.102915 -0.318834 -0.853469
0.101504 -0.318834 -0.853469
0.100093 -0.318834 -0.853469
0.062125 -0.502648 -1.345510
0.059775 -0.501597 -1.342695
0.057077 -0.497434 -1.331553
0.055334 -0.501597 -1.342695
0.048557 -0.478570 -1.281055
0.045264 -0.466466 -1.248654
0.042134 -0.454959 -1.217853
0.040044 -0.454097 -1.215546
0.038106 -0.454959 -1.217853
0.038873 -0.518968 -1.389196
0.029855 -0.423610 -1.133937
0.027980 -0.423610 -1.133937
0.026105 -0.423610 -1.133937
0.024402 -0.426625 -1.142008
0.004684 -0.362180 -0.969499
0.002969 -0.349000 -0.934219
0.001412 -0.345979 -0.926130
-0.000118 -0.340573 -0.911660
-0.004344 -0.318834 -0.853469
-0.005756 -0.318834 -0.853469
-0.007167 -0.318834 -0.853469
-0.008578 -0.318834 -0.853469
-0.009990 -0.318834 -0.853469
-0.011401 -0.318834 -0.853469
-0.020676 -0.514514 -1.377271
-0.022953 -0.514514 -1.377271
-0.024649 -0.502648 -1.345510
-0.026874 -0.502648 -1.345510
-0.041504 -0.333932 -0.893884
-0.042982 -0.333932 -0.893884
-0.044460 -0.333932 -0.893884
-0.046066 -0.334865 -0.896380
-0.047883 -0.337220 -0.902684
-0.051627 -0.352593 -0.943836
-0.053467 -0.325765 -0.872022
-0.053740 -0.318834 -0.853469
-0.055152 -0.318834 -0.853469
-0.056563 -0.318834 -0.853469
-0.057974 -0.318834 -0.853469
-0.059386 -0.318834 -0.853469
-0.060797 -0.318834 -0.853469
-0.062208 -0.318834 -0.853469
-0.063620 -0.318834 -0.853469
-0.097142 -0.337220 -0.902684
-0.095674 -0.327099 -0.875591
-0.096595 -0.325323 -0.870839
-0.096080 -0.318834 -0.853469
-0.097491 -0.318834 -0.853469
-0.098902 -0.318834 -0.853469
-0.100314 -0.318834 -0.853469
-0.101725 -0.318834 -0.853469
-0.103136 -0.318834 -0.853469
-0.104548 -0.318834 -0.853469
-0.134767 -0.394997 -1.057345
-0.134086 -0.387967 -1.038525
-0.134282 -0.383621 -1.026893
-0.135980 -0.383621 -1.026893
-0.132202 -0.351044 -0.939690
-0.132017 -0.346479 -0.927469
-0.129981 -0.337220 -0.902684
-0.124306 -0.318834 -0.853469
-0.125717 -0.318834 -0.853469
-0.137609 -0.323567 -0.866138
-0.137008 -0.318834 -0.853469
-0.138419 -0.318834 -0.853469
-0.151121 -0.318834 -0.853469
-0.152532 -0.318834 -0.853469
-0.153944 -0.318834 -0.853469
-0.155355 -0.318834 -0.853469
-0.156766 -0.318834 -0.853469
-0.158178 -0.318834 -0.853469
-0.159589 -0.318834 -0.853469
-0.161000 -0.318834 -0.853469
-0.162412 -0.318834 -0.853469
-0.250314 -0.428149 -1.146086
-0.248220 -0.421377 -1.127959
-0.247046 -0.416256 -1.114251
-0.250296 -0.415534 -1.112320
-0.306368 -0.429683 -1.150194
-0.304991 -0.425112 -1.137958
-0.306330 -0.424360 -1.135944
-0.303905 -0.418435 -1.120085
-0.305757 -0.418435 -1.120085
-0.244806 -0.333005 -0.891401
-0.246280 -0.333005 -0.891401
-0.244360 -0.328443 -0.879190
-0.245142 -0.327546 -0.876787
-0.242941 -0.322696 -0.863807
-0.241445 -0.318834 -0.853469
-0.242856 -0.318834 -0.853469
-0.280160 -0.324443 -0.868482
-0.276728 -0.318834 -0.853469
-0.278139 -0.318834 -0.853469
-0.337397 -0.338649 -0.906509
-0.796217 -0.681146 -1.823319
-0.794716 -0.677298 -1.813018
-0.793233 -0.673492 -1.802833
-0.421082 -0.334865 -0.896380
-0.409412 -0.324443 -0.868482
-0.403746 -0.318834 -0.853469
-0.405157 -0.318834 -0.853469
-0.414350 -0.322696 -0.863807
-0.410803 -0.318834 -0.853469
-0.412214 -0.318834 -0.853469
0.296265 -0.320246 -0.853469
0.294854 -0.320246 -0.853469
0.620870 -0.684161 -1.823319
0.617855 -0.684161 -1.823319
0.614840 -0.684161 -1.823319
0.611825 -0.684161 -1.823319
0.284975 -0.320246 -0.853469
0.283564 -0.320246 -0.853469
0.282152 -0.320246 -0.853469
0.392411 -0.447629 -1.192953
0.390438 -0.447629 -1.192953
0.382774 -0.441071 -1.175473
0.377374 -0.437068 -1.164807
0.370075 -0.430813 -1.148137
0.365561 -0.427752 -1.139979
0.363031 -0.426994 -1.137958
0.270862 -0.320246 -0.853469
0.269450 -0.320246 -0.853469
0.268039 -0.320246 -0.853469
0.266628 -0.320246 -0.853469
0.265216 -0.320246 -0.853469
0.509978 -0.619086 -1.649893
0.507250 -0.619086 -1.649893
0.504521 -0.619086 -1.649893
0.503087 -0.620682 -1.654145
0.501644 -0.622286 -1.658420
0.504112 -0.628785 -1.675740
0.513405 -0.643916 -1.716065
0.296832 -0.382869 -1.020363
0.295144 -0.382869 -1.020363
0.294393 -0.384090 -1.023618
0.292700 -0.384090 -1.023618
0.327014 -0.452678 -1.206407
0.323802 -0.450982 -1.201888
0.321814 -0.450982 -1.201888
0.318633 -0.449300 -1.197404
0.312571 -0.443508 -1.181968
0.306663 -0.437863 -1.166924
0.304734 -0.437863 -1.166924
0.369273 -0.533979 -1.423079
0.324418 -0.484557 -1.291365
0.305676 -0.459589 -1.224825
0.295201 -0.446799 -1.190739
0.291608 -0.444326 -1.184148
0.289117 -0.443508 -1.181968
0.283508 -0.437863 -1.166924
0.276550 -0.430044 -1.146086
0.274655 -0.430044 -1.146086
0.186183 -0.320246 -0.853469
0.184772 -0.320246 -0.853469
0.183360 -0.320246 -0.853469
0.181949 -0.320246 -0.853469
0.314269 -0.557464 -1.485668
0.245229 -0.464017 -1.236625
0.233727 -0.445972 -1.188534
0.227135 -0.437068 -1.164807
0.223585 -0.433918 -1.156412
0.220481 -0.431585 -1.150194
0.216638 -0.427752 -1.139979
0.211744 -0.421759 -1.124008
0.210254 -0.422499 -1.125980
0.255448 -0.517902 -1.380233
0.255918 -0.523532 -1.395236
0.260986 -0.538758 -1.435813
0.105738 -0.320246 -0.853469
0.104327 -0.320246 -0.853469
0.102915 -0.320246 -0.853469
0.146228 -0.461350 -1.229518
0.155195 -0.496546 -1.323316
0.070884 -0.537555 -1.432608
0.065447 -0.513485 -1.368461
0.062125 -0.504873 -1.345510
0.059900 -0.504873 -1.345510
0.057077 -0.499636 -1.331553
0.054423 -0.495524 -1.320593
0.052239 -0.495524 -1.320593
0.050159 -0.496546 -1.323316
0.045264 -0.468530 -1.248654
0.042134 -0.456973 -1.217853
0.040044 -0.456107 -1.215546
0.043847 -0.525818 -1.401328
0.034057 -0.517902 -1.380233
0.024402 -0.428514 -1.142008
0.004720 -0.366552 -0.976877
0.002964 -0.350036 -0.932861
0.001390 -0.342080 -0.911660
-0.000116 -0.336818 -0.897634
-0.001578 -0.332172 -0.885253
-0.002997 -0.327207 -0.872022
-0.004344 -0.320246 -0.853469
-0.005756 -0.320246 -0.853469
-0.007167 -0.320246 -0.853469
-0.008578 -0.320246 -0.853469
-0.009990 -0.320246 -0.853469
-0.011401 -0.320246 -0.853469
-0.020676 -0.516791 -1.377271
-0.023405 -0.526969 -1.404395
-0.025177 -0.515684 -1.374322
-0.026762 -0.502765 -1.339892
-0.041678 -0.336818 -0.897634
-0.042982 -0.335410 -0.893884
-0.044460 -0.335410 -0.893884
-0.046260 -0.337762 -0.900152
-0.048018 -0.339668 -0.905231
-0.052086 -0.357307 -0.952238
-0.053467 -0.327207 -0.872022
-0.053740 -0.320246 -0.853469
-0.055152 -0.320246 -0.853469
-0.056563 -0.320246 -0.853469
-0.057974 -0.320246 -0.853469
-0.059386 -0.320246 -0.853469
-0.060797 -0.320246 -0.853469
-0.062208 -0.320246 -0.853469
-0.063620 -0.320246 -0.853469
-0.104271 -0.513485 -1.368461
-0.092150 -0.326321 -0.869659
-0.093209 -0.325000 -0.866138
-0.093257 -0.320246 -0.853469
-0.094668 -0.320246 -0.853469
-0.096080 -0.320246 -0.853469
-0.097491 -0.320246 -0.853469
-0.098902 -0.320246 -0.853469
-0.100314 -0.320246 -0.853469
-0.101725 -0.320246 -0.853469
-0.112079 -0.348012 -0.927469
-0.112455 -0.335410 -0.893884
-0.132369 -0.389684 -1.038525
-0.132584 -0.385319 -1.026893
-0.135803 -0.389684 -1.038525
-0.135980 -0.385319 -1.026893
-0.130483 -0.348012 -0.927469
-0.130695 -0.344527 -0.918181
-0.122895 -0.320246 -0.853469
-0.124306 -0.320246 -0.853469
-0.141315 -0.359977 -0.959355
-0.210679 -0.497572 -1.326050
-0.212872 -0.497572 -1.326050
-0.215065 -0.497572 -1.326050
-0.151121 -0.320246 -0.853469
-0.152532 -0.320246 -0.853469
-0.153944 -0.320246 -0.853469
-0.155355 -0.320246 -0.853469
-0.156766 -0.320246 -0.853469
-0.158178 -0.320246 -0.853469
-0.159589 -0.320246 -0.853469
-0.161000 -0.320246 -0.853469
-0.196185 -0.367671 -0.979860
-0.197504 -0.367111 -0.978366
-0.248297 -0.433138 -1.154332
-0.248419 -0.430044 -1.146086
-0.247660 -0.425485 -1.133937
-0.246057 -0.419555 -1.118133
-0.245766 -0.415932 -1.108477
-0.248888 -0.418098 -1.114251
-0.250296 -0.417374 -1.112320
-0.311729 -0.441880 -1.177630
-0.306919 -0.432360 -1.152259
-0.308270 -0.431585 -1.150194
-0.307418 -0.427752 -1.139979
-0.309303 -0.427752 -1.139979
-0.242906 -0.329897 -0.879190
-0.244360 -0.329897 -0.879190
-0.245142 -0.328995 -0.876787
-0.242941 -0.324125 -0.863807
-0.241445 -0.320246 -0.853469
-0.347202 -0.457842 -1.220168
-0.281596 -0.325879 -0.868482
-0.341637 -0.347510 -0.926130
-0.331682 -0.335878 -0.895130
-0.330397 -0.333091 -0.887702
-0.331407 -0.332631 -0.886476
-0.709603 -0.628785 -1.675740
-0.687252 -0.606611 -1.616646
-0.740272 -0.650877 -1.734617
-0.749215 -0.656198 -1.748797
-0.752106 -0.656198 -1.748797
-0.796217 -0.684161 -1.823319
-0.794716 -0.680296 -1.813018
-0.797714 -0.680296 -1.813018
-0.796214 -0.676474 -1.802833
-0.410849 -0.325879 -0.868482
-0.414909 -0.324562 -0.864971
-0.410803 -0.320246 -0.853469
-0.412214 -0.320246 -0.853469
0.296265 -0.321657 -0.853469
0.294854 -0.321657 -0.853469
0.625124 -0.685229 -1.818154
0.623885 -0.687176 -1.823319
0.620870 -0.687176 -1.823319
0.617855 -0.687176 -1.823319
0.614840 -0.687176 -1.823319
0.433325 -0.486692 -1.291365
0.408972 -0.461614 -1.224825
0.406946 -0.461614 -1.224825
0.401094 -0.457251 -1.213248
0.397584 -0.455529 -1.208679
0.390438 -0.449602 -1.192953
0.380682 -0.440594 -1.169050
0.371974 -0.432712 -1.148137
0.369414 -0.431939 -1.146086
0.365561 -0.429638 -1.139979
0.272273 -0.321657 -0.853469
0.270862 -0.321657 -0.853469
0.269450 -0.321657 -0.853469
0.268039 -0.321657 -0.853469
0.266628 -0.321657 -0.853469
0.522102 -0.633209 -1.680127
0.519323 -0.633209 -1.680127
0.508557 -0.623417 -1.654145
0.505822 -0.623417 -1.654145
0.504386 -0.625028 -1.658420
0.506883 -0.631556 -1.675740
0.516243 -0.646754 -1.716065
0.298519 -0.384556 -1.020363
0.296832 -0.384556 -1.020363
0.296086 -0.385783 -1.023618
0.294393 -0.385783 -1.023618
0.426798 -0.562525 -1.492578
0.330250 -0.456389 -1.210959
0.327014 -0.454673 -1.206407
0.325019 -0.454673 -1.206407
0.321814 -0.452970 -1.201888
0.315106 -0.446284 -1.184148
0.309155 -0.440594 -1.169050
0.302267 -0.433487 -1.150194
0.300365 -0.433487 -1.150194
0.369273 -0.536332 -1.423079
0.369377 -0.539924 -1.432608
0.338119 -0.503929 -1.337101
0.324418 -0.486692 -1.291365
0.305676 -0.461614 -1.224825
0.299648 -0.455529 -1.208679
0.291608 -0.446284 -1.184148
0.289650 -0.446284 -1.184148
0.283508 -0.439793 -1.166924
0.280558 -0.438199 -1.162696
0.274655 -0.431939 -1.146086
0.184772 -0.321657 -0.853469
0.183360 -0.321657 -0.853469
0.181949 -0.321657 -0.853469
0.314269 -0.559921 -1.485668
0.311813 -0.559921 -1.485668
0.235692 -0.447937 -1.188534
0.229061 -0.438994 -1.164807
0.225092 -0.435047 -1.154332
0.221986 -0.432712 -1.148137
0.218523 -0.429638 -1.139979
0.213603 -0.423618 -1.124008
0.211744 -0.423618 -1.124008
0.265143 -0.535146 -1.419930
0.262215 -0.533965 -1.416796
0.259872 -0.533965 -1.416796
0.258671 -0.536332 -1.423079
0.157538 -0.485715 -1.288772
0.152048 -0.475218 -1.260920
0.149963 -0.475218 -1.260920
0.155195 -0.498734 -1.323316
0.066439 -0.523563 -1.389196
0.063591 -0.519069 -1.377271
0.060922 -0.515748 -1.368461
0.056607 -0.497708 -1.320593
0.053112 -0.485715 -1.288772
0.051083 -0.486692 -1.291365
0.049953 -0.496686 -1.317882
0.047774 -0.496686 -1.317882
0.043032 -0.468771 -1.243815
0.043957 -0.502881 -1.334321
0.002922 -0.346541 -0.919496
0.001372 -0.339251 -0.900152
-0.000115 -0.333636 -0.885253
-0.001555 -0.328649 -0.872022
-0.002933 -0.321657 -0.853469
-0.004344 -0.321657 -0.853469
-0.005756 -0.321657 -0.853469
-0.007167 -0.321657 -0.853469
-0.008578 -0.321657 -0.853469
-0.009990 -0.321657 -0.853469
-0.011401 -0.321657 -0.853469
-0.021083 -0.529291 -1.404395
-0.041853 -0.339727 -0.901416
-0.043162 -0.338302 -0.897634
-0.044647 -0.338302 -0.897634
-0.046521 -0.341165 -0.905231
-0.048291 -0.343101 -0.910367
-0.053467 -0.328649 -0.872022
-0.053740 -0.321657 -0.853469
-0.055152 -0.321657 -0.853469
-0.056563 -0.321657 -0.853469
-0.059235 -0.328649 -0.872022
-0.059386 -0.321657 -0.853469
-0.060797 -0.321657 -0.853469
-0.062208 -0.321657 -0.853469
-0.063620 -0.321657 -0.853469
-0.065031 -0.321657 -0.853469
-0.103876 -0.502881 -1.334321
-0.096171 -0.364836 -0.968037
-0.095892 -0.357819 -0.949421
-0.095346 -0.350052 -0.928811
-0.092466 -0.334097 -0.886476
-0.091901 -0.326873 -0.867309
-0.091846 -0.321657 -0.853469
-0.093257 -0.321657 -0.853469
-0.094668 -0.321657 -0.853469
-0.096080 -0.321657 -0.853469
-0.097491 -0.321657 -0.853469
-0.098902 -0.321657 -0.853469
-0.100314 -0.321657 -0.853469
-0.110545 -0.349546 -0.927469
-0.112895 -0.352090 -0.934219
-0.111131 -0.337358 -0.895130
-0.111523 -0.334097 -0.886476
-0.112989 -0.334097 -0.886476
-0.132584 -0.387018 -1.026893
-0.135980 -0.387018 -1.026893
-0.130672 -0.350052 -0.928811
-0.130136 -0.344567 -0.914257
-0.122895 -0.321657 -0.853469
-0.124306 -0.321657 -0.853469
-0.209707 -0.519069 -1.377271
-0.211984 -0.519069 -1.377271
-0.211115 -0.500799 -1.328796
-0.212872 -0.499764 -1.326050
-0.215065 -0.499764 -1.326050
-0.211575 -0.486692 -1.291365
-0.146887 -0.321657 -0.853469
-0.148298 -0.321657 -0.853469
-0.491961 -1.047125 -2.778391
-0.152532 -0.321657 -0.853469
-0.153944 -0.321657 -0.853469
-0.158178 -0.321657 -0.853469
-0.159589 -0.321657 -0.853469
-0.161000 -0.321657 -0.853469
-0.197391 -0.371561 -0.985881
-0.246388 -0.435047 -1.154332
-0.246523 -0.431939 -1.146086
-0.245352 -0.426607 -1.131937
-0.244209 -0.421404 -1.118133
-0.243933 -0.417765 -1.108477
-0.244499 -0.415612 -1.102764
-0.246746 -0.416327 -1.104662
-0.249863 -0.418488 -1.110395
-0.326559 -0.467864 -1.241409
-0.321766 -0.458117 -1.215546
-0.312529 -0.442205 -1.173324
-0.308824 -0.434266 -1.152259
-0.310172 -0.433487 -1.150194
-0.242906 -0.331351 -0.879190
-0.244360 -0.331351 -0.879190
-0.245142 -0.330445 -0.876787
-0.243926 -0.326873 -0.867309
-0.245360 -0.326873 -0.867309
-0.351884 -0.466062 -1.236625
-0.331125 -0.338302 -0.897634
-0.329385 -0.335022 -0.888931
-0.329941 -0.334097 -0.886476
-0.331407 -0.334097 -0.886476
-0.332873 -0.334097 -0.886476
-0.684579 -0.609285 -1.616646
-0.682098 -0.604715 -1.604521
-0.683044 -0.603207 -1.600520
-0.735192 -0.646754 -1.716065
-0.746008 -0.653746 -1.734617
-0.752947 -0.657299 -1.744045
-0.796217 -0.687176 -1.823319
-0.794716 -0.683294 -1.813018
-0.793233 -0.679455 -1.802833
-0.793984 -0.677552 -1.797783
-0.775241 -0.659090 -1.748797
-0.424053 -0.333176 -0.884034
-0.416901 -0.326432 -0.866138
0.296265 -0.323068 -0.853469
0.294854 -0.323068 -0.853469
0.625124 -0.688236 -1.818154
0.623885 -0.690191 -1.823319
0.620870 -0.690191 -1.823319
0.617855 -0.690191 -1.823319
0.613098 -0.688236 -1.818154
0.433325 -0.488827 -1.291365
0.428602 -0.485895 -1.283617
0.406946 -0.463640 -1.224825
0.401094 -0.459258 -1.213248
0.392411 -0.451575 -1.192953
0.382615 -0.442527 -1.169050
0.373872 -0.434610 -1.148137
0.371974 -0.434610 -1.148137
0.367446 -0.431523 -1.139979
0.273684 -0.323068 -0.853469
0.272273 -0.323068 -0.853469
0.270862 -0.323068 -0.853469
0.269450 -0.323068 -0.853469
0.268039 -0.323068 -0.853469
0.527642 -0.639335 -1.688969
0.522102 -0.635988 -1.680127
0.513942 -0.629397 -1.662716
0.511192 -0.629397 -1.662716
0.508443 -0.629397 -1.662716
0.509654 -0.634327 -1.675740
0.519081 -0.649592 -1.716065
0.736927 -0.927280 -2.449651
0.300206 -0.386244 -1.020363
0.298519 -0.386244 -1.020363
0.297778 -0.387476 -1.023618
0.296086 -0.387476 -1.023618
0.429266 -0.564994 -1.492578
0.426798 -0.564994 -1.492578
0.424330 -0.564994 -1.492578
0.328248 -0.458391 -1.210959
0.325019 -0.456668 -1.206407
0.321814 -0.454957 -1.201888
0.311088 -0.442527 -1.169050
0.304169 -0.435389 -1.150194
0.296423 -0.426972 -1.127959
0.294558 -0.426972 -1.127959
0.369273 -0.538686 -1.423079
0.369377 -0.542293 -1.432608
0.364567 -0.538686 -1.423079
0.352065 -0.523593 -1.383208
0.343850 -0.514719 -1.359764
0.324418 -0.488827 -1.291365
0.305676 -0.463640 -1.224825
0.299648 -0.457528 -1.208679
0.293777 -0.451575 -1.192953
0.289650 -0.448242 -1.184148
0.283508 -0.441722 -1.166924
0.280558 -0.440122 -1.162696
0.273191 -0.431523 -1.139979
0.184772 -0.323068 -0.853469
0.183360 -0.323068 -0.853469
0.316726 -0.562378 -1.485668
0.311386 -0.557218 -1.472038
0.308952 -0.557218 -1.472038
0.237658 -0.449902 -1.188534
0.231407 -0.441722 -1.166924
0.227410 -0.437743 -1.156412
0.223884 -0.434610 -1.148137
0.220018 -0.430758 -1.137958
0.213963 -0.422517 -1.116189
0.213230 -0.424733 -1.122043
0.263963 -0.539883 -1.426241
0.261025 -0.538686 -1.423079
0.260986 -0.543506 -1.435813
0.152048 -0.477303 -1.260920
0.148794 -0.473581 -1.251089
0.146725 -0.473581 -1.251089
0.070884 -0.542293 -1.432608
0.065869 -0.521346 -1.377271
0.064142 -0.525860 -1.389196
0.061314 -0.521346 -1.377271
0.054477 -0.481084 -1.270908
0.050573 -0.464526 -1.227167
0.050374 -0.482038 -1.273429
0.049145 -0.490803 -1.296583
0.047774 -0.498865 -1.317882
0.045782 -0.500922 -1.323316
0.046265 -0.531613 -1.404395
0.002982 -0.355186 -0.938316
0.001372 -0.340739 -0.900152
-0.000113 -0.330991 -0.874398
-0.001544 -0.327864 -0.866138
-0.002933 -0.323068 -0.853469
-0.004344 -0.323068 -0.853469
-0.005756 -0.323068 -0.853469
-0.007167 -0.323068 -0.853469
-0.008578 -0.323068 -0.853469
-0.009990 -0.323068 -0.853469
-0.011401 -0.323068 -0.853469
-0.021411 -0.539883 -1.426241
-0.037806 -0.345096 -0.911660
-0.039314 -0.345096 -0.911660
-0.040363 -0.341218 -0.901416
-0.044477 -0.362608 -0.957923
-0.043344 -0.341218 -0.901416
-0.046466 -0.353635 -0.934219
-0.048011 -0.353635 -0.934219
-0.051707 -0.337427 -0.891401
-0.053107 -0.336959 -0.890164
-0.053467 -0.330091 -0.872022
-0.054760 -0.329197 -0.869659
-0.058414 -0.342179 -0.903956
-0.058913 -0.336492 -0.888931
-0.060383 -0.336492 -0.888931
-0.060594 -0.329643 -0.870839
-0.060797 -0.323068 -0.853469
-0.062208 -0.323068 -0.853469
-0.063620 -0.323068 -0.853469
-0.065031 -0.323068 -0.853469
-0.103876 -0.505088 -1.334321
-0.096171 -0.366436 -0.968037
-0.095892 -0.359389 -0.949421
-0.095346 -0.351588 -0.928811
-0.092466 -0.335562 -0.886476
-0.091901 -0.328307 -0.867309
-0.091846 -0.323068 -0.853469
-0.093257 -0.323068 -0.853469
-0.094668 -0.323068 -0.853469
-0.096080 -0.323068 -0.853469
-0.097491 -0.323068 -0.853469
-0.098902 -0.323068 -0.853469
-0.109011 -0.351080 -0.927469
-0.111350 -0.353635 -0.934219
-0.112404 -0.352097 -0.930157
-0.111676 -0.345096 -0.911660
-0.111131 -0.338839 -0.895130
-0.112455 -0.338367 -0.893884
-0.111604 -0.323068 -0.853469
-0.113016 -0.323068 -0.853469
-0.114427 -0.323068 -0.853469
-0.131433 -0.353635 -0.934219
-0.132208 -0.351588 -0.928811
-0.133744 -0.351588 -0.928811
-0.139104 -0.361529 -0.955072
-0.202007 -0.519118 -1.371386
-0.201689 -0.512547 -1.354026
-0.207429 -0.521346 -1.377271
-0.207922 -0.516909 -1.365550
-0.211530 -0.520230 -1.374322
-0.212438 -0.516909 -1.365550
-0.208056 -0.500922 -1.323316
-0.210245 -0.500922 -1.323316
-0.207722 -0.489813 -1.293969
-0.209861 -0.489813 -1.293969
-0.210727 -0.486868 -1.286189
-0.212853 -0.486868 -1.286189
-0.145476 -0.323068 -0.853469
-0.146887 -0.323068 -0.853469
-0.148298 -0.323068 -0.853469
-0.444987 -0.960266 -2.536792
-0.491961 -1.051720 -2.778391
-0.496555 -1.051720 -2.778391
-0.485726 -0.941656 -2.487630
-0.462926 -0.889917 -2.350947
-0.445594 -0.849466 -2.244085
-0.199227 -0.376662 -0.995052
-0.199021 -0.373191 -0.985881
-0.202518 -0.376662 -0.995052
-0.245505 -0.435389 -1.150194
-0.243910 -0.429235 -1.133937
-0.242360 -0.423253 -1.118133
-0.242100 -0.419598 -1.108477
-0.243093 -0.418154 -1.104662
-0.244499 -0.417435 -1.102764
-0.247172 -0.418875 -1.106566
-0.249863 -0.420324 -1.110395
-0.325135 -0.470828 -1.243815
-0.326559 -0.469917 -1.241409
-0.322376 -0.461000 -1.217853
-0.243692 -0.331895 -0.876787
-0.244142 -0.330540 -0.873209
-0.243926 -0.328307 -0.867309
-0.244370 -0.326981 -0.863807
-0.347202 -0.461877 -1.220168
-0.353929 -0.468106 -1.236625
-0.358739 -0.471742 -1.246230
-0.332431 -0.342662 -0.905231
-0.328826 -0.337427 -0.891401
-0.329385 -0.336492 -0.888931
-0.330397 -0.336027 -0.887702
-0.331865 -0.336027 -0.887702
-0.332873 -0.335562 -0.886476
-0.330685 -0.331895 -0.876787
-0.331681 -0.331442 -0.875591
-0.709603 -0.634327 -1.675740
-0.682098 -0.607368 -1.604521
-0.677971 -0.601355 -1.588635
-0.680598 -0.601355 -1.588635
-0.741998 -0.653084 -1.725291
-0.796217 -0.690191 -1.823319
-0.794716 -0.686292 -1.813018
-0.793233 -0.682436 -1.802833
-0.776581 -0.665609 -1.758379
-0.764821 -0.653084 -1.725291
-0.767674 -0.653084 -1.725291
0.296265 -0.324479 -0.853469
0.294854 -0.324479 -0.853469
0.626900 -0.693206 -1.823319
0.623885 -0.693206 -1.823319
0.620870 -0.693206 -1.823319
0.616105 -0.691242 -1.818154
0.435460 -0.490963 -1.291365
0.433325 -0.490963 -1.291365
0.408972 -0.465665 -1.224825
0.403100 -0.461264 -1.213248
0.394384 -0.453548 -1.192953
0.384549 -0.444460 -1.169050
0.375771 -0.436509 -1.148137
0.373872 -0.436509 -1.148137
0.369331 -0.433408 -1.139979
0.275096 -0.324479 -0.853469
0.273684 -0.324479 -0.853469
0.272273 -0.324479 -0.853469
0.270862 -0.324479 -0.853469
0.501551 -0.603982 -1.588635
0.537508 -0.650689 -1.711489
0.531841 -0.647238 -1.702410
0.518033 -0.633788 -1.667035
0.515277 -0.633788 -1.667035
0.512520 -0.633788 -1.667035
0.513767 -0.638766 -1.680127
0.523318 -0.654178 -1.720666
0.740978 -0.931330 -2.449651
0.736927 -0.931330 -2.449651
0.732876 -0.931330 -2.449651
0.704621 -0.900401 -2.368297
0.302856 -0.389168 -1.023618
0.300206 -0.387931 -1.020363
0.299471 -0.389168 -1.023618
0.297778 -0.389168 -1.023618
0.432741 -0.568785 -1.496057
0.430267 -0.568785 -1.496057
0.426798 -0.567462 -1.492578
0.514895 -0.713475 -1.876633
0.511792 -0.713475 -1.876633
0.475332 -0.666690 -1.753575
0.325019 -0.458663 -1.206407
0.313021 -0.444460 -1.169050
0.306071 -0.437291 -1.150194
0.298289 -0.428838 -1.127959
0.294869 -0.426588 -1.122043
0.294558 -0.428838 -1.127959
0.370094 -0.542241 -1.426241
0.369377 -0.544662 -1.432608
0.364567 -0.541039 -1.423079
0.352065 -0.525881 -1.383208
0.343850 -0.516967 -1.359764
0.324418 -0.490963 -1.291365
0.305676 -0.465665 -1.224825
0.299085 -0.458663 -1.206407
0.293777 -0.453548 -1.192953
0.294541 -0.457802 -1.204143
0.286635 -0.448545 -1.179795
0.280558 -0.442044 -1.162696
0.264272 -0.419259 -1.102764
0.262449 -0.419259 -1.102764
0.341118 -0.572790 -1.506593
0.338626 -0.572790 -1.506593
0.559350 -0.953158 -2.507064
0.575799 -0.995953 -2.619626
0.571468 -0.995953 -2.619626
0.567136 -0.995953 -2.619626
0.318446 -0.563530 -1.482237
0.315995 -0.563530 -1.482237
0.303723 -0.545880 -1.435813
0.290308 -0.525881 -1.383208
0.288021 -0.525881 -1.383208
0.233762 -0.444460 -1.169050
0.229322 -0.439655 -1.156412
0.225783 -0.436509 -1.148137
0.221899 -0.432639 -1.137958
0.216940 -0.426588 -1.122043
0.212118 -0.420704 -1.106566
0.213230 -0.426588 -1.122043
0.264551 -0.543449 -1.429417
0.261605 -0.542241 -1.426241
0.262750 -0.549569 -1.445514
0.263926 -0.557097 -1.465316
0.152048 -0.479388 -1.260920
0.148216 -0.473803 -1.246230
0.146155 -0.473803 -1.246230
0.068736 -0.528157 -1.389196
0.065308 -0.519167 -1.365550
0.063591 -0.523624 -1.377271
0.060792 -0.519167 -1.365550
0.052203 -0.463014 -1.217853
0.049999 -0.461264 -1.213248
0.047722 -0.458663 -1.206407
0.048948 -0.490963 -1.291365
0.047001 -0.492947 -1.296583
0.045972 -0.505194 -1.328796
0.044048 -0.508351 -1.337101
0.034913 -0.504150 -1.326050
0.031236 -0.481279 -1.265894
0.001372 -0.342228 -0.900152
-0.000112 -0.330187 -0.868482
-0.001538 -0.327969 -0.862646
-0.002933 -0.324479 -0.853469
-0.004344 -0.324479 -0.853469
-0.005756 -0.324479 -0.853469
-0.007167 -0.324479 -0.853469
-0.008578 -0.324479 -0.853469
-0.009990 -0.324479 -0.853469
-0.011401 -0.324479 -0.853469
-0.012812 -0.324479 -0.853469
-0.036822 -0.351597 -0.924796
-0.037806 -0.346603 -0.911660
-0.039203 -0.345621 -0.909077
-0.040591 -0.344645 -0.906509
-0.044477 -0.364192 -0.957923
-0.046061 -0.364192 -0.957923
-0.047645 -0.364192 -0.957923
-0.049796 -0.346111 -0.910367
-0.050233 -0.338901 -0.891401
-0.051563 -0.337962 -0.888931
-0.053033 -0.337962 -0.888931
-0.054428 -0.337495 -0.887702
-0.055436 -0.334717 -0.880396
-0.058579 -0.344645 -0.906509
-0.059490 -0.341271 -0.897634
-0.060383 -0.337962 -0.888931
-0.060594 -0.331084 -0.870839
-0.060797 -0.324479 -0.853469
-0.062208 -0.324479 -0.853469
-0.063620 -0.324479 -0.853469
-0.065031 -0.324479 -0.853469
-0.132292 -0.497977 -1.309813
-0.134457 -0.497977 -1.309813
-0.127273 -0.463895 -1.220168
-0.090435 -0.324479 -0.853469
-0.091846 -0.324479 -0.853469
-0.093257 -0.324479 -0.853469
-0.094668 -0.324479 -0.853469
-0.096080 -0.324479 -0.853469
-0.097491 -0.324479 -0.853469
-0.098902 -0.324479 -0.853469
-0.112423 -0.363649 -0.956495
-0.114005 -0.363649 -0.956495
-0.112404 -0.353636 -0.930157
-0.111676 -0.346603 -0.911660
-0.112227 -0.343674 -0.903956
-0.113722 -0.343674 -0.903956
-0.111604 -0.324479 -0.853469
-0.113016 -0.324479 -0.853469
-0.114427 -0.324479 -0.853469
-0.115838 -0.324479 -0.853469
-0.133383 -0.364736 -0.959355
-0.133769 -0.361494 -0.950827
-0.132977 -0.355180 -0.934219
-0.134522 -0.355180 -0.934219
-0.139312 -0.363649 -0.956495
-0.202974 -0.518065 -1.362651
-0.207429 -0.523624 -1.377271
-0.209707 -0.523624 -1.377271
-0.211984 -0.523624 -1.377271
-0.208056 -0.503110 -1.323316
-0.205997 -0.492947 -1.296583
-0.207304 -0.490963 -1.291365
-0.209439 -0.490963 -1.291365
-0.210727 -0.488995 -1.286189
-0.212853 -0.488995 -1.286189
-0.145476 -0.324479 -0.853469
-0.146887 -0.324479 -0.853469
-0.148298 -0.324479 -0.853469
-0.444987 -0.964461 -2.536792
-0.481538 -1.033935 -2.719527
-0.486035 -1.033935 -2.719527
-0.501150 -1.056314 -2.778391
-0.495044 -0.972146 -2.557006
-0.459038 -0.893804 -2.350947
-0.441884 -0.853177 -2.244085
-0.445594 -0.853177 -2.244085
-0.425501 -0.807975 -2.125193
-0.200872 -0.378308 -0.995052
-0.200960 -0.375398 -0.987398
-0.202593 -0.375398 -0.987398
-0.243480 -0.430350 -1.131937
-0.240682 -0.422160 -1.110395
-0.240852 -0.419259 -1.102764
-0.243093 -0.419980 -1.104662
-0.245342 -0.420704 -1.106566
-0.248027 -0.422160 -1.110395
-0.249863 -0.422160 -1.110395
-0.326559 -0.471970 -1.241409
-0.243360 -0.332890 -0.875591
-0.243810 -0.331533 -0.872022
-0.243926 -0.329741 -0.867309
-0.241445 -0.324479 -0.853469
-0.242856 -0.324479 -0.853469
-0.349219 -0.463895 -1.220168
-0.355974 -0.470151 -1.236625
-0.347059 -0.362568 -0.953653
-0.330934 -0.344159 -0.905231
-0.327352 -0.338901 -0.891401
-0.328826 -0.338901 -0.891401
-0.330300 -0.338901 -0.891401
-0.331314 -0.338431 -0.890164
-0.332325 -0.337962 -0.888931
-0.331956 -0.336100 -0.884034
-0.330234 -0.332890 -0.875591
-0.328989 -0.330187 -0.868482
-0.330425 -0.330187 -0.868482
-0.777921 -0.701174 -1.844277
-0.736525 -0.661270 -1.739318
-0.685526 -0.613087 -1.612584
-0.677971 -0.603982 -1.588635
-0.680598 -0.603982 -1.588635
-0.724470 -0.640442 -1.684537
-0.796217 -0.693206 -1.823319
-0.794716 -0.689290 -1.813018
-0.793233 -0.685417 -1.802833
-0.776581 -0.668517 -1.758379
-0.768956 -0.659483 -1.734617
-0.771824 -0.659483 -1.734617
0.296265 -0.325891 -0.853469
0.294854 -0.325891 -0.853469
0.626900 -0.696221 -1.823319
0.623885 -0.696221 -1.823319
0.619111 -0.694249 -1.818154
0.437596 -0.493098 -1.291365
0.435460 -0.493098 -1.291365
0.410997 -0.467691 -1.224825
0.405106 -0.463270 -1.213248
0.396356 -0.455520 -1.192953
0.386482 -0.446393 -1.169050
0.377669 -0.438408 -1.148137
0.375771 -0.438408 -1.148137
0.371216 -0.435293 -1.139979
0.276507 -0.325891 -0.853469
0.275096 -0.325891 -0.853469
0.273684 -0.325891 -0.853469
0.272273 -0.325891 -0.853469
0.505429 -0.608114 -1.592577
0.540338 -0.653520 -1.711489
0.537508 -0.653520 -1.711489
0.531841 -0.650053 -1.702410
0.518033 -0.636545 -1.667035
0.515277 -0.636545 -1.667035
0.517901 -0.643228 -1.684537
0.526163 -0.657024 -1.720666
0.745029 -0.935381 -2.449651
0.740978 -0.935381 -2.449651
0.723127 -0.917865 -2.403777
0.711162 -0.907666 -2.377068
0.696906 -0.894416 -2.342366
0.302856 -0.390861 -1.023618
0.301164 -0.390861 -1.023618
0.299471 -0.390861 -1.023618
0.435215 -0.571258 -1.496057
0.432741 -0.571258 -1.496057
0.430267 -0.571258 -1.496057
0.530407 -0.729375 -1.910144
0.522582 -0.722920 -1.893240
0.514895 -0.716579 -1.876633
0.511792 -0.716579 -1.876633
0.498485 -0.702206 -1.838993
0.314955 -0.446393 -1.169050
0.307973 -0.439193 -1.150194
0.300154 -0.430703 -1.127959
0.296724 -0.428444 -1.122043
0.294869 -0.428444 -1.122043
0.374115 -0.547031 -1.432608
0.371746 -0.547031 -1.432608
0.369377 -0.547031 -1.432608
0.365377 -0.544600 -1.426241
0.352065 -0.528168 -1.383208
0.343850 -0.519216 -1.359764
0.321828 -0.489161 -1.281055
0.305676 -0.467691 -1.224825
0.298524 -0.459793 -1.204143
0.293777 -0.455520 -1.192953
0.295095 -0.460658 -1.206407
0.262021 -0.417496 -1.093370
0.260213 -0.417496 -1.093370
0.343609 -0.575281 -1.506593
0.336380 -0.567291 -1.485668
0.338626 -0.575281 -1.506593
0.559350 -0.957304 -2.507064
0.561787 -0.968656 -2.536792
0.557592 -0.968656 -2.536792
0.571468 -1.000285 -2.619626
0.666120 -1.183912 -3.100524
0.306098 -0.548255 -1.435813
0.292596 -0.528168 -1.383208
0.289062 -0.525901 -1.377271
0.275550 -0.505299 -1.323316
0.273362 -0.505299 -1.323316
0.239623 -0.453833 -1.188534
0.231652 -0.442364 -1.158499
0.228499 -0.439982 -1.152259
0.225783 -0.438408 -1.148137
0.223884 -0.438408 -1.148137
0.220018 -0.434521 -1.137958
0.264551 -0.545813 -1.429417
0.262187 -0.545813 -1.429417
0.266349 -0.559520 -1.465316
0.304084 -0.949883 -2.487630
0.151750 -0.480529 -1.258448
0.147073 -0.472196 -1.236625
0.145028 -0.472196 -1.236625
0.154924 -0.511628 -1.339892
0.067138 -0.518118 -1.356889
0.063288 -0.505299 -1.323316
0.062783 -0.519216 -1.359764
0.060792 -0.521425 -1.365550
0.052104 -0.464147 -1.215546
0.049717 -0.460658 -1.206407
0.047190 -0.455520 -1.192953
0.045727 -0.460658 -1.206407
0.047001 -0.495091 -1.296583
0.045594 -0.503224 -1.317882
0.043865 -0.508444 -1.331553
0.037029 -0.505299 -1.323316
0.032621 -0.473108 -1.239012
0.030572 -0.473108 -1.239012
-0.000113 -0.332975 -0.872022
-0.001538 -0.329395 -0.862646
-0.002933 -0.325891 -0.853469
-0.004344 -0.325891 -0.853469
-0.005756 -0.325891 -0.853469
-0.007167 -0.325891 -0.853469
-0.008578 -0.325891 -0.853469
-0.009990 -0.325891 -0.853469
-0.011401 -0.325891 -0.853469
-0.012812 -0.325891 -0.853469
-0.036716 -0.352112 -0.922139
