ply
format ascii 1.0
element vertex 1602
property float32 x
property float32 y
property float32 z
element face 0
property list uint8 int32 vertex_indices
end_header
3.661044 1.488102 81.244522
3.711138 1.454435 79.406410
3.792578 1.434955 78.342934
3.854884 1.409781 76.968498
3.983726 1.409781 76.968498
12.830862 2.869911 156.685867
11.638353 2.551032 139.276321
11.686004 2.511172 137.100128
12.604002 2.511172 137.100128
12.078590 2.363456 129.035416
11.611557 2.232153 121.866783
11.419062 2.157248 117.777298
11.462358 2.128676 116.217331
11.356078 2.073742 113.218178
11.184800 2.008938 109.680107
11.091122 1.959939 107.004982
11.270244 1.959939 107.004982
9.535359 1.607150 87.744087
9.006734 1.495023 81.622406
8.935562 1.461046 79.767349
8.947083 1.441390 78.694244
9.119710 1.447883 79.048729
9.293899 1.454435 79.406410
9.426822 1.454435 79.406410
9.603198 1.461046 79.767349
10.152036 1.523365 83.169754
25.816504 1.339292 73.120071
25.938904 1.339292 73.120071
26.061304 1.339292 73.120071
26.183704 1.339292 73.120071
26.306103 1.339292 73.120071
26.428503 1.339292 73.120071
26.550903 1.339292 73.120071
26.673304 1.339292 73.120071
31.446896 1.339292 73.120071
31.569296 1.339292 73.120071
31.691694 1.339292 73.120071
31.814095 1.339292 73.120071
31.936495 1.339292 73.120071
32.058895 1.339292 73.120071
34.384491 1.339292 73.120071
34.506889 1.339292 73.120071
34.629292 1.339292 73.120071
34.751690 1.339292 73.120071
34.874088 1.339292 73.120071
34.996490 1.339292 73.120071
35.118889 1.339292 73.120071
35.241291 1.339292 73.120071
35.363689 1.339292 73.120071
36.220490 1.339292 73.120071
36.342888 1.339292 73.120071
36.465286 1.339292 73.120071
36.587688 1.339292 73.120071
36.710087 1.339292 73.120071
78.655899 2.795044 152.598404
72.022255 2.551032 139.276321
71.126411 2.511172 137.100128
70.802765 2.491706 136.037338
71.030479 2.491706 136.037338
71.814911 2.511172 137.100128
73.773476 2.571440 140.390533
181.393341 6.302550 344.094452
193.342422 6.696459 365.600372
-37.219395 1.461692 73.120071
-37.096996 1.461692 73.120071
-36.974598 1.461692 73.120071
-36.852196 1.461692 73.120071
-36.729797 1.461692 73.120071
-115.602303 4.615869 230.905487
-115.215782 4.615869 230.905487
-100.310616 4.032253 201.710541
-87.855026 3.543495 177.260788
-87.558296 3.543495 177.260788
-35.415409 1.531904 76.632393
-33.669800 1.461692 73.120071
-33.547401 1.461692 73.120071
-33.425003 1.461692 73.120071
-48.735516 2.139061 107.004982
-40.329063 1.789827 89.534782
-35.156788 1.566098 78.342934
-32.690601 1.461692 73.120071
-32.568203 1.461692 73.120071
-32.445805 1.461692 73.120071
-32.323402 1.461692 73.120071
-21.478415 1.686567 84.369316
-21.235092 1.678498 83.965630
-20.796028 1.654745 82.777443
-20.274918 1.624102 81.244522
-19.683287 1.587357 79.406410
-19.288528 1.566098 78.342934
-18.987850 1.552239 77.649635
-18.370165 1.512095 75.641457
-17.635427 1.461692 73.120071
-17.513027 1.461692 73.120071
-18.068184 1.518641 75.968903
-17.268227 1.461692 73.120071
-17.145828 1.461692 73.120071
-17.023428 1.461692 73.120071
-16.901028 1.461692 73.120071
-16.778627 1.461692 73.120071
-16.656229 1.461692 73.120071
-16.533829 1.461692 73.120071
-16.411428 1.461692 73.120071
-38.677467 3.692695 184.724396
-33.440216 3.218404 160.998322
-31.996525 3.104478 155.299271
-30.391792 2.972932 148.718796
-61.149284 7.016120 350.976349
-51.323532 5.945864 297.437592
-49.159218 5.750918 287.685516
-48.677647 5.750918 287.685516
-47.418716 5.658161 283.045441
-47.714500 5.750918 287.685516
-47.232929 5.750918 287.685516
-11.419970 1.566098 78.342934
-11.139635 1.545401 77.307564
-11.010225 1.545401 77.307564
-10.880816 1.545401 77.307564
-10.846974 1.559138 77.994743
-10.764256 1.566098 78.342934
-10.539015 1.552239 77.649635
-10.409033 1.552239 77.649635
-10.370828 1.566098 78.342934
-27.255337 4.278122 214.009964
-25.947784 4.127130 206.456680
-25.602184 4.127130 206.456680
-26.818739 5.158912 258.070831
-20.624119 4.032253 201.710541
-17.303160 3.439275 172.047226
-17.015162 3.439275 172.047226
-8.925094 1.970820 98.588860
-7.532805 1.694715 84.776894
-6.954158 1.594573 79.767349
-6.524082 1.525243 76.299202
-6.129845 1.461692 73.120071
-6.007445 1.461692 73.120071
-6.284558 1.970820 98.588860
-5.856319 1.886054 94.348480
-5.637763 1.865989 93.344772
-5.540449 1.886054 94.348480
-3.192250 1.461692 73.120071
-3.069850 1.461692 73.120071
-2.947450 1.461692 73.120071
-2.825050 1.461692 73.120071
3.427599 1.711249 85.603989
3.502553 1.678498 83.965630
3.574693 1.646976 82.388817
3.678072 1.631656 81.622406
3.728007 1.594573 79.767349
3.792578 1.566098 78.342934
3.871866 1.545401 77.307564
4.001275 1.545401 77.307564
12.830862 3.132196 156.685867
11.456504 2.740672 137.100128
11.246680 2.637639 131.945999
11.467552 2.637639 131.945999
12.671491 2.806448 140.390533
12.130168 2.637639 131.945999
11.568227 2.470465 123.583221
11.374586 2.386435 119.379707
11.419062 2.354403 117.777298
11.462358 2.323219 116.217331
11.356078 2.263264 113.218178
11.184800 2.192538 109.680107
11.297789 2.178919 108.998863
9.257630 1.702942 85.188431
8.802035 1.594573 79.767349
8.775999 1.566098 78.342934
8.907142 1.566098 78.342934
9.038284 1.566098 78.342934
9.169427 1.566098 78.342934
9.342276 1.573121 78.694244
9.559744 1.587357 79.406410
10.152036 1.662588 83.169754
25.816504 1.461692 73.120071
25.938904 1.461692 73.120071
26.061304 1.461692 73.120071
26.183704 1.461692 73.120071
26.306103 1.461692 73.120071
26.428503 1.461692 73.120071
26.550903 1.461692 73.120071
31.446896 1.461692 73.120071
31.569296 1.461692 73.120071
31.691694 1.461692 73.120071
31.814095 1.461692 73.120071
31.936495 1.461692 73.120071
32.058895 1.461692 73.120071
32.181293 1.461692 73.120071
34.384491 1.461692 73.120071
34.506889 1.461692 73.120071
34.629292 1.461692 73.120071
34.751690 1.461692 73.120071
34.874088 1.461692 73.120071
34.996490 1.461692 73.120071
35.118889 1.461692 73.120071
35.241291 1.461692 73.120071
35.363689 1.461692 73.120071
35.486088 1.461692 73.120071
36.220490 1.461692 73.120071
36.342888 1.461692 73.120071
36.465286 1.461692 73.120071
81.964111 3.189145 159.534698
78.655899 3.050487 152.598404
73.778900 2.852081 142.673309
72.255402 2.784174 139.276321
71.917763 2.762252 138.179657
72.149071 2.762252 138.179657
72.954826 2.784174 139.276321
75.587578 2.875459 143.842758
192.730423 7.308458 365.600372
928.043640 35.080601 1754.881714
-37.219395 1.584091 73.120071
-37.096996 1.584091 73.120071
-36.974598 1.584091 73.120071
-36.852196 1.584091 73.120071
-36.729797 1.584091 73.120071
-109.822189 4.752275 219.360214
-109.454994 4.752275 219.360214
-94.858948 4.132412 190.748016
-87.855026 3.840222 177.260788
-87.558296 3.840222 177.260788
-35.108780 1.645809 75.968903
-33.669800 1.584091 73.120071
-33.547401 1.584091 73.120071
-33.425003 1.584091 73.120071
-48.735516 2.318183 107.004982
-49.461170 2.361379 108.998863
-44.572319 2.135854 98.588860
-37.285362 1.793311 82.777443
-34.692162 1.674810 77.307564
-32.690601 1.584091 73.120071
-32.568203 1.584091 73.120071
-32.445805 1.584091 73.120071
-32.323402 1.584091 73.120071
-21.375647 1.819052 83.965630
-21.133972 1.810390 83.565796
-20.796028 1.793311 82.777443
-20.464403 1.776551 82.003822
-19.863043 1.735991 80.131584
-19.375023 1.704852 78.694244
-19.072241 1.689698 77.994743
-18.610823 1.660183 76.632393
-18.322521 1.645809 75.968903
-17.513027 1.584091 73.120071
-17.390627 1.584091 73.120071
-17.268227 1.584091 73.120071
-17.145828 1.584091 73.120071
-17.023428 1.584091 73.120071
-16.901028 1.584091 73.120071
-16.778627 1.584091 73.120071
-16.656229 1.584091 73.120071
-16.533829 1.584091 73.120071
-42.725109 4.420720 204.056015
-38.368244 4.001915 184.724396
-33.170712 3.487908 160.998322
-31.736561 3.364442 155.299271
-286.612640 31.681829 1462.401489
-340.997559 38.018196 1754.881714
-73.496193 9.051951 417.828979
-55.590260 6.912399 319.069397
-51.323532 6.443762 297.437592
-49.159218 6.232491 287.685516
-47.892525 6.131967 283.045441
-47.418716 6.131967 283.045441
-46.199753 6.034634 278.552643
-44.326286 5.848953 269.981812
-43.209583 5.760333 265.891174
-42.764496 5.760333 265.891174
-11.288827 1.697241 78.342934
-11.108094 1.689698 77.994743
-10.977534 1.689698 77.994743
-10.895398 1.697241 78.342934
-27.255337 4.636365 214.009964
-25.947784 4.472729 206.456680
-25.602184 4.472729 206.456680
-25.256586 4.472729 206.456680
-24.910986 4.472729 206.456680
-20.624119 4.369907 201.710541
-16.650211 3.586622 165.554886
-15.777695 3.456199 159.534698
-8.037580 1.959701 90.457825
-6.860604 1.704852 78.694244
-6.252245 1.584091 73.120071
-6.129845 1.584091 73.120071
-6.007445 1.584091 73.120071
-5.794018 2.022244 93.344772
-5.326128 1.910462 88.185013
-4.954440 1.827798 84.369316
-4.530079 1.720280 79.406410
-4.049048 1.584091 73.120071
-3.926649 1.584091 73.120071
-3.570960 1.645809 75.968903
-3.314650 1.584091 73.120071
-3.192250 1.584091 73.120071
-3.069850 1.584091 73.120071
-2.947450 1.584091 73.120071
-2.825050 1.584091 73.120071
3.427599 1.854546 85.603989
3.502553 1.819052 83.965630
3.591555 1.793311 82.777443
3.712608 1.784892 82.388817
3.814705 1.768288 81.622406
3.861534 1.728100 79.767349
3.976984 1.720280 79.406410
11.456504 2.970171 137.100128
11.080063 2.816163 129.991241
11.297663 2.816163 129.991241
12.436483 3.041456 140.390533
12.671491 3.041456 140.390533
11.690669 2.754942 127.165344
11.407557 2.640152 121.866783
11.221908 2.551557 117.777298
11.419062 2.551557 117.777298
11.462358 2.517761 116.217331
11.283282 2.437064 112.492416
11.115329 2.361379 108.998863
11.297789 2.361379 108.998863
9.124745 1.819052 83.965630
8.722737 1.712531 79.048729
8.736995 1.689698 77.994743
8.789426 1.674810 77.307564
8.998114 1.689698 77.994743
9.128674 1.689698 77.994743
9.300570 1.697241 78.342934
9.474007 1.704852 78.694244
9.736725 1.728100 79.767349
10.340263 1.810390 83.565796
25.816504 1.584091 73.120071
25.938904 1.584091 73.120071
26.061304 1.584091 73.120071
26.183704 1.584091 73.120071
26.306103 1.584091 73.120071
26.428503 1.584091 73.120071
31.446896 1.584091 73.120071
31.569296 1.584091 73.120071
31.691694 1.584091 73.120071
31.814095 1.584091 73.120071
31.936495 1.584091 73.120071
32.058895 1.584091 73.120071
32.181293 1.584091 73.120071
34.384491 1.584091 73.120071
34.506889 1.584091 73.120071
34.629292 1.584091 73.120071
34.751690 1.584091 73.120071
34.874088 1.584091 73.120071
34.996490 1.584091 73.120071
35.118889 1.584091 73.120071
35.241291 1.584091 73.120071
35.363689 1.584091 73.120071
35.486088 1.584091 73.120071
35.608490 1.584091 73.120071
35.730888 1.584091 73.120071
35.853287 1.584091 73.120071
81.964111 3.456199 159.534698
79.345863 3.334929 153.936996
76.905121 3.221881 148.718796
72.833443 3.041456 140.390533
72.488541 3.017317 139.276321
73.303459 3.041456 140.390533
75.346786 3.116246 143.842758
95.068909 3.919401 180.915649
660.790039 27.155853 1253.486938
-37.219395 1.706491 73.120071
-37.096996 1.706491 73.120071
-36.974598 1.706491 73.120071
-36.852196 1.706491 73.120071
-36.729797 1.706491 73.120071
-104.592560 4.875690 208.914490
-104.242851 4.875690 208.914490
-91.863403 4.311136 184.724396
-89.666466 4.222246 180.915649
-33.792202 1.706491 73.120071
-33.669800 1.706491 73.120071
-33.547401 1.706491 73.120071
-33.425003 1.706491 73.120071
-48.556393 2.497304 107.004982
-38.327888 1.978541 84.776894
-36.259159 1.878706 80.499161
-34.389172 1.788462 76.632393
-32.690601 1.706491 73.120071
-32.568203 1.706491 73.120071
-32.445805 1.706491 73.120071
-32.323402 1.706491 73.120071
-50.902321 4.222246 180.915649
-51.126556 4.266228 182.800186
-56.077854 4.707562 201.710541
-49.596558 4.266228 182.800186
-49.290558 4.266228 182.800186
-48.984558 4.266228 182.800186
-21.582174 1.978541 84.776894
-21.133972 1.950276 83.565796
-20.894588 1.941033 83.169754
-20.560480 1.922807 82.388817
-20.138918 1.896101 81.244522
-19.639229 1.861627 79.767349
-19.243294 1.836583 78.694244
-18.692450 1.796307 76.968498
-18.563606 1.796307 76.968498
-18.195353 1.772978 75.968903
-17.990303 1.765336 75.641457
-17.268227 1.706491 73.120071
-17.145828 1.706491 73.120071
-17.023428 1.706491 73.120071
-16.901028 1.706491 73.120071
-16.778627 1.706491 73.120071
-16.656229 1.706491 73.120071
-16.533829 1.706491 73.120071
-47.483784 5.250742 224.984833
-47.107170 5.250742 224.984833
-42.882156 4.818328 206.456680
-291.508636 34.129826 1462.401489
-182.564606 21.555679 923.621948
-171.967590 20.477896 877.440857
-106.561745 12.798684 548.400513
-88.963150 10.777840 461.810974
-71.302635 8.713998 373.379089
-59.318710 7.313534 313.371735
-52.261459 6.500919 278.552643
-48.702927 6.112804 261.922638
-47.554707 6.022910 258.070831
-74.195625 9.751379 417.828979
-60.526279 8.030547 344.094452
-51.821430 6.941659 297.437592
-50.468140 6.825965 292.480286
-48.366329 6.605772 283.045441
-47.892525 6.605772 283.045441
-45.230160 6.300891 269.981812
-44.778225 6.300891 269.981812
-43.654675 6.205423 265.891174
-42.564667 6.112804 261.922638
-42.126221 6.112804 261.922638
-41.074715 6.022910 258.070831
-11.157683 1.828383 78.342934
-11.026541 1.828383 78.342934
-28.662197 5.184277 222.136932
-27.936720 5.119474 219.360214
-26.897093 4.994608 214.009964
-26.538851 4.994608 214.009964
-26.180607 4.994608 214.009964
-25.822363 4.994608 214.009964
-16.044748 3.723254 159.534698
-14.708020 3.470830 148.718796
-14.459071 3.470830 148.718796
-6.829977 1.828383 78.342934
-6.252245 1.706491 73.120071
-6.129845 1.706491 73.120071
-6.007445 1.706491 73.120071
-6.214730 2.275322 97.493431
-5.236901 1.969028 84.369316
-4.817725 1.861627 79.767349
-4.663002 1.853203 79.406410
-4.352816 1.780686 76.299202
-4.049048 1.706491 73.120071
-3.926649 1.706491 73.120071
-3.804249 1.706491 73.120071
-3.825298 1.772978 75.968903
-3.698129 1.772978 75.968903
-3.437049 1.706491 73.120071
-3.314650 1.706491 73.120071
-3.192250 1.706491 73.120071
-3.069850 1.706491 73.120071
-2.947450 1.706491 73.120071
-2.825050 1.706491 73.120071
3.427599 1.997843 85.603989
3.502553 1.959607 83.965630
3.608577 1.941033 83.169754
3.730121 1.931877 82.777443
3.832530 1.913822 82.003822
3.951337 1.904920 81.622406
11.280251 3.150445 134.990906
10.460199 2.864041 122.719002
12.091117 3.126396 133.960434
11.361354 2.884211 123.583221
11.251289 2.805191 120.197380
11.221908 2.748711 117.777298
11.342935 2.730386 116.992119
11.386948 2.694460 115.452744
11.140456 2.592139 111.068466
10.978945 2.512625 107.661453
11.159165 2.512625 107.661453
9.124745 1.959607 83.965630
8.644856 1.828383 78.342934
8.584383 1.788462 76.632393
8.712663 1.788462 76.632393
8.879718 1.796307 76.968498
9.048244 1.804220 77.307564
9.259233 1.820257 77.994743
9.431712 1.828383 78.342934
9.692667 1.853203 79.406410
10.439690 1.969028 84.369316
10.632035 1.978541 84.776894
10.773949 1.978541 84.776894
10.863381 1.969028 84.369316
11.004612 1.969028 84.369316
25.816504 1.706491 73.120071
25.938904 1.706491 73.120071
26.061304 1.706491 73.120071
26.183704 1.706491 73.120071
26.306103 1.706491 73.120071
26.428503 1.706491 73.120071
26.550903 1.706491 73.120071
31.324495 1.706491 73.120071
31.446896 1.706491 73.120071
31.569296 1.706491 73.120071
31.691694 1.706491 73.120071
31.814095 1.706491 73.120071
31.936495 1.706491 73.120071
32.058895 1.706491 73.120071
32.181293 1.706491 73.120071
33.855400 1.788462 76.632393
34.384491 1.706491 73.120071
34.506889 1.706491 73.120071
34.629292 1.706491 73.120071
34.751690 1.706491 73.120071
34.874088 1.706491 73.120071
34.996490 1.706491 73.120071
35.118889 1.706491 73.120071
35.241291 1.706491 73.120071
35.363689 1.706491 73.120071
35.486088 1.706491 73.120071
35.608490 1.706491 73.120071
35.730888 1.706491 73.120071
35.853287 1.706491 73.120071
35.975689 1.706491 73.120071
36.098087 1.706491 73.120071
82.231171 3.723254 159.534698
79.603546 3.592613 153.936996
77.154068 3.470830 148.718796
77.403023 3.470830 148.718796
97.478004 4.356999 186.689545
97.790512 4.356999 186.689545
102.463158 4.550643 194.986862
-37.219395 1.828891 73.120071
-37.096996 1.828891 73.120071
-36.974598 1.828891 73.120071
-36.852196 1.828891 73.120071
-36.729797 1.828891 73.120071
-102.160179 5.103882 204.056015
-101.818596 5.103882 204.056015
-89.969315 4.525091 180.915649
-89.666466 4.525091 180.915649
-36.337074 1.959526 78.342934
-33.792202 1.828891 73.120071
-33.669800 1.828891 73.120071
-33.547401 1.828891 73.120071
-45.067417 2.465920 98.588860
-44.737350 2.465920 98.588860
-37.601292 2.080255 83.169754
-35.446175 1.968313 78.694244
-33.944485 1.891956 75.641457
-32.690601 1.828891 73.120071
-32.568203 1.828891 73.120071
-32.445805 1.828891 73.120071
-53.574551 4.572227 182.800186
-53.268551 4.572227 182.800186
-52.962551 4.572227 182.800186
-52.656555 4.572227 182.800186
-49.271111 4.303273 172.047226
-48.983109 4.303273 172.047226
-48.695110 4.303273 172.047226
-48.886391 4.345880 173.750671
-50.083157 4.478917 179.069565
-50.820557 4.572227 182.800186
-50.964314 4.669509 186.689545
-49.596558 4.572227 182.800186
-48.284630 4.478917 179.069565
-47.500179 4.433675 177.260788
-47.685120 4.478917 179.069565
-46.906727 4.433675 177.260788
-21.235092 2.100162 83.965630
-20.894588 2.080255 83.169754
-20.560480 2.060722 82.388817
-20.232588 2.041553 81.622406
-19.728905 2.004264 80.131584
-19.329975 1.977180 79.048729
-18.857868 1.942185 77.649635
-18.645386 1.933629 77.307564
-18.515976 1.933629 77.307564
-18.305923 1.925148 76.968498
-17.863684 1.891956 75.641457
-17.145828 1.828891 73.120071
-17.023428 1.828891 73.120071
-16.901028 1.828891 73.120071
-16.778627 1.828891 73.120071
-16.656229 1.828891 73.120071
-311.092590 36.577820 1462.401489
-47.483784 5.627357 224.984833
-47.107170 5.627357 224.984833
-184.110718 23.101782 923.621948
-182.564606 23.101782 923.621948
-107.479744 13.716683 548.400513
-89.736206 11.550891 461.810974
-71.927658 9.339018 373.379089
-59.843281 7.838105 313.371735
-52.727745 6.967204 278.552643
-49.141373 6.551251 261.922638
-47.291245 6.361360 254.330688
-46.195999 6.270483 250.697388
-46.439770 6.361360 254.330688
-57.707706 8.128405 324.978088
-53.221382 7.567825 302.565826
-50.957737 7.315564 292.480286
-49.640793 7.195637 287.685516
-47.598610 6.967204 278.552643
-45.682098 6.752829 269.981812
-44.544857 6.650513 265.891174
-43.441559 6.551251 261.922638
-43.003113 6.551251 261.922638
-41.938717 6.454910 258.070831
-41.506714 6.454910 258.070831
-41.074715 6.454910 258.070831
-40.642715 6.454910 258.070831
-40.210716 6.454910 258.070831
-29.405518 5.486673 219.360214
-29.038319 5.486673 219.360214
-29.034044 5.556125 222.136932
-28.303919 5.486673 219.360214
-27.936720 5.486673 219.360214
-27.569521 5.486673 219.360214
-26.866489 5.418936 216.652069
-26.503824 5.418936 216.652069
-26.467922 5.486673 219.360214
-15.758235 3.919052 156.685867
-13.996342 3.539789 141.522720
-13.759439 3.539789 141.522720
-6.799621 1.950817 77.994743
-6.252245 1.828891 73.120071
-6.129845 1.828891 73.120071
-6.007445 1.828891 73.120071
-4.783447 1.828891 73.120071
-5.016374 1.968313 78.694244
-4.951252 1.995154 79.767349
-4.795925 1.986126 79.406410
-4.600552 1.959526 78.342934
-4.371823 1.916742 76.632393
-4.049048 1.828891 73.120071
-3.926649 1.828891 73.120071
-3.804249 1.828891 73.120071
-3.681849 1.828891 73.120071
-3.559449 1.828891 73.120071
-3.437049 1.828891 73.120071
-3.314650 1.828891 73.120071
-3.192250 1.828891 73.120071
-3.069850 1.828891 73.120071
-2.947450 1.828891 73.120071
-2.825050 1.828891 73.120071
3.410960 2.130747 85.188431
3.502553 2.100162 83.965630
3.625760 2.090161 83.565796
3.747799 2.080255 83.169754
3.868686 2.070443 82.777443
4.007252 2.070443 82.777443
9.776217 2.926226 116.992119
10.245263 3.006396 120.197380
11.732862 3.251362 129.991241
11.203558 3.048152 121.866783
11.099245 2.965769 118.573090
11.147095 2.926226 116.992119
11.267816 2.906847 116.217331
11.239065 2.850220 113.953362
11.001201 2.743337 109.680107
10.978945 2.692846 107.661453
11.159165 2.692846 107.661453
8.911551 2.051093 82.003822
8.419338 1.908408 76.299202
8.190932 1.828891 73.120071
8.313332 1.828891 73.120071
8.435732 1.828891 73.120071
9.008559 1.925148 76.968498
9.177654 1.933629 77.307564
9.431712 1.959526 78.342934
9.605738 1.968313 78.694244
10.291258 2.080255 83.169754
10.580920 2.110259 84.369316
10.722151 2.110259 84.369316
10.863381 2.110259 84.369316
11.004612 2.110259 84.369316
25.938904 1.828891 73.120071
26.061304 1.828891 73.120071
26.183704 1.828891 73.120071
26.306103 1.828891 73.120071
26.428503 1.828891 73.120071
30.712496 1.828891 73.120071
30.834896 1.828891 73.120071
30.957296 1.828891 73.120071
31.202095 1.828891 73.120071
31.324495 1.828891 73.120071
31.446896 1.828891 73.120071
31.569296 1.828891 73.120071
31.691694 1.828891 73.120071
31.814095 1.828891 73.120071
31.936495 1.828891 73.120071
32.058895 1.828891 73.120071
32.181293 1.828891 73.120071
33.855400 1.916742 76.632393
34.434792 1.942185 77.649635
34.718391 1.950817 77.994743
34.262093 1.828891 73.120071
34.384491 1.828891 73.120071
34.506889 1.828891 73.120071
34.629292 1.828891 73.120071
34.751690 1.828891 73.120071
34.874088 1.828891 73.120071
34.996490 1.828891 73.120071
35.118889 1.828891 73.120071
35.241291 1.828891 73.120071
35.363689 1.828891 73.120071
35.486088 1.828891 73.120071
35.608490 1.828891 73.120071
35.730888 1.828891 73.120071
35.853287 1.828891 73.120071
35.975689 1.828891 73.120071
38.165379 1.933629 77.307564
109.432243 5.225403 208.914490
113.847954 5.418936 216.652069
-37.219395 1.951291 73.120071
-37.096996 1.951291 73.120071
-36.974598 1.951291 73.120071
-36.852196 1.951291 73.120071
-36.729797 1.951291 73.120071
-98.716576 5.261908 197.177719
-98.386505 5.261908 197.177719
-87.270233 4.683098 175.488174
-86.976471 4.683098 175.488174
-33.914600 1.951291 73.120071
-33.792202 1.951291 73.120071
-33.669800 1.951291 73.120071
-33.547401 1.951291 73.120071
-48.618183 2.838241 106.356468
-48.440147 2.838241 106.356468
-40.422581 2.377207 89.080292
-37.423927 2.209008 82.777443
-35.131096 2.081377 77.994743
-32.813004 1.951291 73.120071
-32.690601 1.951291 73.120071
-32.568203 1.951291 73.120071
-32.445805 1.951291 73.120071
-54.447716 4.929577 184.724396
-53.574551 4.878227 182.800186
-53.268551 4.878227 182.800186
-52.962551 4.878227 182.800186
-50.049793 4.636731 173.750671
-48.792747 4.546697 170.376862
-48.507545 4.546697 170.376862
-48.222343 4.546697 170.376862
-47.937138 4.546697 170.376862
-47.651936 4.546697 170.376862
-49.783401 4.778671 179.069565
-50.514557 4.878227 182.800186
-52.391537 5.090324 190.748016
-50.427849 4.929577 184.724396
-49.596558 4.878227 182.800186
-47.796906 4.730402 177.260788
-47.500179 4.730402 177.260788
-47.203453 4.730402 177.260788
-45.977879 4.636731 173.750671
-46.609997 4.730402 177.260788
-20.796028 2.209008 82.777443
-20.464403 2.188364 82.003822
-20.232588 2.178185 81.622406
-19.728905 2.138401 80.131584
-19.329975 2.109504 79.048729
-18.941681 2.081377 77.994743
-18.811121 2.081377 77.994743
-18.597904 2.072167 77.649635
-18.467922 2.072167 77.649635
-18.019020 2.036130 76.299202
-17.145828 1.951291 73.120071
-17.023428 1.951291 73.120071
-16.901028 1.951291 73.120071
-16.778627 1.951291 73.120071
-16.656229 1.951291 73.120071
-17.252691 2.036130 76.299202
-311.092590 39.025818 1462.401489
-217.866776 27.547636 1032.283325
-27.995869 3.716744 139.276321
-27.762728 3.716744 139.276321
-108.397736 14.634682 548.400513
-107.479744 14.634682 548.400513
-89.736206 12.323942 461.810974
-71.927658 9.964039 373.379089
-59.843281 8.362675 313.371735
-52.727745 7.433489 278.552643
-50.653416 7.204766 269.981812
-47.986706 6.886909 258.070831
-46.195999 6.690140 250.697388
-47.826031 6.989698 261.922638
-52.048656 7.677210 287.685516
-58.251705 8.672404 324.978088
-53.727867 8.074307 302.565826
-51.447338 7.805163 292.480286
-50.122364 7.677210 287.685516
-48.064896 7.433489 278.552643
-46.134037 7.204766 269.981812
-43.666714 6.886909 258.070831
-43.234715 6.886909 258.070831
-42.802715 6.886909 258.070831
-42.370716 6.886909 258.070831
-41.938717 6.886909 258.070831
-40.905170 6.787099 254.330688
-40.479431 6.787099 254.330688
-38.925419 6.595913 247.166443
-37.976788 6.504303 243.733566
-37.568790 6.504303 243.733566
-29.405153 5.781602 216.652069
-28.688311 5.711095 214.009964
-28.679821 5.781602 216.652069
-28.671120 5.853873 219.360214
-28.303919 5.853873 219.360214
-27.936720 5.853873 219.360214
-27.569521 5.853873 219.360214
-27.202322 5.853873 219.360214
-27.174807 5.927972 222.136932
-15.758235 4.181337 156.685867
-13.884371 3.746479 140.390533
-13.649364 3.746479 140.390533
-6.769534 2.072167 77.649635
-6.252245 1.951291 73.120071
-6.129845 1.951291 73.120071
-6.007445 1.951291 73.120071
-4.905847 1.951291 73.120071
-4.783447 1.951291 73.120071
-4.661047 1.951291 73.120071
-4.862837 2.090669 78.342934
-4.731694 2.090669 78.342934
-4.600552 2.090669 78.342934
-4.333972 2.027315 75.968903
-4.049048 1.951291 73.120071
-3.926649 1.951291 73.120071
-3.804249 1.951291 73.120071
-3.681849 1.951291 73.120071
-3.559449 1.951291 73.120071
-3.437049 1.951291 73.120071
-3.314650 1.951291 73.120071
-3.192250 1.951291 73.120071
-3.069850 1.951291 73.120071
-2.947450 1.951291 73.120071
3.349661 2.329900 87.307549
3.394482 2.262366 84.776894
3.502553 2.240717 83.965630
3.625760 2.230047 83.565796
3.747799 2.219478 83.169754
3.868686 2.209008 82.777443
4.026244 2.219478 83.169754
9.580378 3.122065 116.992119
9.108276 2.908756 108.998863
9.290736 2.908756 108.998863
11.561579 3.418320 128.093552
11.203558 3.252151 121.866783
11.099245 3.164255 118.573090
11.147095 3.122065 116.992119
11.267816 3.101389 116.217331
11.094975 3.001986 112.492416
10.932870 2.908756 108.998863
10.978945 2.873066 107.661453
8.513714 2.090669 78.342934
8.068532 1.951291 73.120071
8.190932 1.951291 73.120071
8.313332 1.951291 73.120071
8.435732 1.951291 73.120071
8.558131 1.951291 73.120071
9.137402 2.053990 76.968498
9.348246 2.072167 77.649635
9.562855 2.090669 78.342934
9.870252 2.128681 79.767349
10.580920 2.251489 84.369316
26.061304 1.951291 73.120071
26.183704 1.951291 73.120071
27.690636 2.053990 76.968498
27.819477 2.053990 76.968498
27.948318 2.053990 76.968498
30.467697 1.951291 73.120071
30.590097 1.951291 73.120071
30.712496 1.951291 73.120071
30.834896 1.951291 73.120071
30.957296 1.951291 73.120071
31.079697 1.951291 73.120071
31.202095 1.951291 73.120071
31.324495 1.951291 73.120071
31.446896 1.951291 73.120071
31.569296 1.951291 73.120071
31.691694 1.951291 73.120071
31.814095 1.951291 73.120071
31.936495 1.951291 73.120071
32.058895 1.951291 73.120071
32.181293 1.951291 73.120071
33.855400 2.045021 76.632393
34.434792 2.072167 77.649635
34.564774 2.072167 77.649635
34.694756 2.072167 77.649635
34.139690 1.951291 73.120071
34.262093 1.951291 73.120071
34.384491 1.951291 73.120071
34.506889 1.951291 73.120071
34.629292 1.951291 73.120071
34.751690 1.951291 73.120071
34.874088 1.951291 73.120071
34.996490 1.951291 73.120071
35.118889 1.951291 73.120071
35.241291 1.951291 73.120071
35.363689 1.951291 73.120071
35.486088 1.951291 73.120071
35.608490 1.951291 73.120071
35.730888 1.951291 73.120071
35.853287 1.951291 73.120071
35.975689 1.951291 73.120071
38.165379 2.063039 77.307564
113.485291 5.781602 216.652069
118.226723 6.003972 224.984833
-37.219395 2.073691 73.120071
-37.096996 2.073691 73.120071
-36.974598 2.073691 73.120071
-36.852196 2.073691 73.120071
-36.729797 2.073691 73.120071
-95.497559 5.409628 190.748016
-95.178253 5.409628 190.748016
-84.728378 4.831901 170.376862
-84.443176 4.831901 170.376862
-36.468216 2.221812 78.342934
-33.914600 2.073691 73.120071
-33.792202 2.073691 73.120071
-33.669800 2.073691 73.120071
-48.211834 2.980154 105.082741
-48.035931 2.980154 105.082741
-44.403469 2.764921 97.493431
-40.218426 2.513564 88.630394
-37.248226 2.336553 82.388817
-34.975647 2.202149 77.649635
-32.813004 2.073691 73.120071
-32.690601 2.073691 73.120071
-32.568203 2.073691 73.120071
-32.445805 2.073691 73.120071
-54.447716 5.238798 184.724396
-53.574551 5.184227 182.800186
-53.268551 5.184227 182.800186
-52.416546 5.130781 180.915649
-49.559109 4.879272 172.047226
-47.411823 4.695148 165.554886
-47.134689 4.695148 165.554886
-48.222343 4.831901 170.376862
-47.937138 4.831901 170.376862
-47.651936 4.831901 170.376862
-49.280540 5.027129 177.260788
-49.483646 5.078426 179.069565
-50.208557 5.184227 182.800186
-49.902557 5.184227 182.800186
-49.085255 5.130781 180.915649
-47.318935 4.976858 175.488174
-47.025177 4.976858 175.488174
-46.268730 4.927582 173.750671
-45.085106 4.831901 170.376862
-44.369133 4.785440 168.738632
-20.560480 2.336553 82.388817
-20.422565 2.336553 82.388817
-20.095955 2.314817 81.622406
-19.594769 2.272538 80.131584
-19.197651 2.241828 79.048729
-18.811121 2.211937 77.994743
-18.680563 2.211937 77.994743
-18.467922 2.202149 77.649635
-18.019020 2.163851 76.299202
-17.145828 2.073691 73.120071
-17.023428 2.073691 73.120071
-16.901028 2.073691 73.120071
-16.778627 2.073691 73.120071
-16.656229 2.073691 73.120071
-16.533829 2.073691 73.120071
-29.154552 4.079391 143.842758
-27.558434 3.888170 137.100128
-27.328934 3.888170 137.100128
-108.397736 15.552680 548.400513
-107.479744 15.552680 548.400513
-89.736206 13.096993 461.810974
-71.927658 10.589059 373.379089
-69.817162 10.368453 365.600372
-58.278034 8.731329 307.873993
-53.974949 8.158783 287.685516
-50.201477 7.656704 269.981812
-49.749538 7.656704 269.981812
-50.067875 7.776340 274.200256
-50.396320 7.899774 278.552643
-51.567085 8.158783 287.685516
-49.463749 7.899774 278.552643
-48.997463 7.899774 278.552643
-47.037910 7.656704 269.981812
-45.195347 7.428146 261.922638
-43.459599 7.212837 254.330688
-41.821640 7.009659 247.166443
-41.407894 7.009659 247.166443
-40.994148 7.009659 247.166443
-40.580402 7.009659 247.166443
-39.066200 6.817613 240.394760
-38.663792 6.817613 240.394760
-39.901154 7.109797 250.697388
-39.481495 7.109797 250.697388
-39.061840 7.109797 250.697388
-29.050522 5.996214 211.431534
-28.696594 5.996214 211.431534
-28.688311 6.069338 214.009964
-29.038319 6.221072 219.360214
-28.671120 6.221072 219.360214
-28.303919 6.221072 219.360214
-27.936720 6.221072 219.360214
-27.918503 6.299820 222.136932
-27.546654 6.299820 222.136932
-15.481775 4.365664 153.936996
-13.774178 3.949887 139.276321
-13.541036 3.949887 139.276321
-6.769534 2.202149 77.649635
-6.252245 2.073691 73.120071
-6.129845 2.073691 73.120071
-6.007445 2.073691 73.120071
-5.028247 2.073691 73.120071
-4.905847 2.073691 73.120071
-4.783447 2.073691 73.120071
-4.661047 2.073691 73.120071
-4.695153 2.145197 75.641457
-4.689821 2.202149 77.649635
-4.500103 2.173300 76.632393
-4.171448 2.073691 73.120071
-4.049048 2.073691 73.120071
-3.926649 2.073691 73.120071
-3.804249 2.073691 73.120071
-3.681849 2.073691 73.120071
-3.559449 2.073691 73.120071
-3.437049 2.073691 73.120071
-3.314650 2.073691 73.120071
-3.192250 2.073691 73.120071
-3.069850 2.073691 73.120071
-2.947450 2.073691 73.120071
3.285234 2.539213 89.534782
3.349661 2.476048 87.307549
3.394482 2.404279 84.776894
3.502553 2.381272 83.965630
3.625760 2.369932 83.565796
3.747799 2.358700 83.169754
3.887022 2.358700 83.169754
4.026244 2.358700 83.169754
9.580378 3.317905 116.992119
8.781034 2.980154 105.082741
8.956937 2.980154 105.082741
11.561579 3.632743 128.093552
11.126291 3.432316 121.026329
11.099245 3.362742 118.573090
11.147095 3.317905 116.992119
11.193686 3.274248 115.452744
10.954533 3.149910 111.068466
10.798724 3.053287 107.661453
10.978945 3.053287 107.661453
8.513714 2.221812 78.342934
8.068532 2.073691 73.120071
8.190932 2.073691 73.120071
8.313332 2.073691 73.120071
8.435732 2.073691 73.120071
8.558131 2.073691 73.120071
8.979860 2.145197 75.641457
9.266243 2.182832 76.968498
9.478228 2.202149 77.649635
9.693997 2.221812 78.342934
10.381280 2.347574 82.777443
30.467697 2.073691 73.120071
30.590097 2.073691 73.120071
30.712496 2.073691 73.120071
30.834896 2.073691 73.120071
30.957296 2.073691 73.120071
31.202095 2.073691 73.120071
31.324495 2.073691 73.120071
31.446896 2.073691 73.120071
31.569296 2.073691 73.120071
31.691694 2.073691 73.120071
31.814095 2.073691 73.120071
31.936495 2.073691 73.120071
32.058895 2.073691 73.120071
32.181293 2.073691 73.120071
33.855400 2.173300 76.632393
34.434792 2.202149 77.649635
34.564774 2.202149 77.649635
34.694756 2.202149 77.649635
34.824738 2.202149 77.649635
34.139690 2.073691 73.120071
34.262093 2.073691 73.120071
34.384491 2.073691 73.120071
34.506889 2.073691 73.120071
34.629292 2.073691 73.120071
34.751690 2.073691 73.120071
34.874088 2.073691 73.120071
34.996490 2.073691 73.120071
35.118889 2.073691 73.120071
35.241291 2.073691 73.120071
35.363689 2.073691 73.120071
35.486088 2.073691 73.120071
35.608490 2.073691 73.120071
35.730888 2.073691 73.120071
35.853287 2.073691 73.120071
35.975689 2.073691 73.120071
39.379734 2.262208 79.767349
122.564110 6.635810 233.984238
131.738342 7.109797 250.697388
-37.219395 2.196090 73.120071
-37.096996 2.196090 73.120071
-36.974598 2.196090 73.120071
-36.852196 2.196090 73.120071
-36.729797 2.196090 73.120071
-92.481842 5.548018 184.724396
-92.172623 5.548018 184.724396
-81.560966 4.925810 164.007645
-81.286423 4.925810 164.007645
-35.986256 2.321858 77.307564
-33.914600 2.196090 73.120071
-33.792202 2.196090 73.120071
-33.669800 2.196090 73.120071
-48.211834 3.156058 105.082741
-48.035931 3.156058 105.082741
-43.915520 2.895943 96.422073
-40.218426 2.661928 88.630394
-37.074169 2.462905 82.003822
-34.668846 2.311674 76.968498
-32.813004 2.196090 73.120071
-32.690601 2.196090 73.120071
-32.568203 2.196090 73.120071
-32.445805 2.196090 73.120071
-53.268551 5.490226 182.800186
-52.416546 5.433626 180.915649
-49.559109 5.167272 172.047226
-46.533825 4.880201 162.489044
-46.261826 4.880201 162.489044
-47.758667 5.067901 168.738632
-47.937138 5.117104 170.376862
-47.651936 5.117104 170.376862
-49.280540 5.323856 177.260788
-48.983814 5.323856 177.260788
-49.690945 5.433626 180.915649
-49.388100 5.433626 180.915649
-48.093632 5.323856 177.260788
-47.318935 5.270617 175.488174
-46.559582 5.218433 173.750671
-44.934055 5.067901 168.738632
-42.216053 4.791470 159.534698
-40.477104 4.623348 153.936996
-41.681946 4.791470 159.534698
-34.800049 4.216494 140.390533
-34.020710 4.150092 138.179657
-33.789406 4.150092 138.179657
-18.895100 2.352954 78.342934
-18.763958 2.352954 78.342934
-18.467922 2.332131 77.649635
-17.891298 2.291573 76.299202
-17.023428 2.196090 73.120071
-16.901028 2.196090 73.120071
-16.778627 2.196090 73.120071
-16.656229 2.196090 73.120071
-16.533829 2.196090 73.120071
-32.308392 4.748304 158.097458
-28.684319 4.250498 141.522720
-26.324474 3.933296 130.961319
-26.105251 3.933296 130.961319
-97.427879 15.058907 501.394775
-88.963150 13.870045 461.810974
-79.791046 12.549088 417.828979
-94.909943 15.058907 501.394775
-52.530231 8.640356 287.685516
-50.396320 8.366059 278.552643
-49.930035 8.366059 278.552643
-47.941788 8.108642 269.981812
-46.072243 7.866593 261.922638
-40.766190 7.027490 233.984238
-39.843269 6.935022 230.905487
-39.456741 6.935022 230.905487
-37.116707 6.588272 219.360214
-37.214691 6.671667 222.136932
-37.799801 6.844957 227.906723
-37.418293 6.844957 227.906723
-37.036789 6.844957 227.906723
-37.632755 7.027490 233.984238
-38.261379 7.220024 240.394760
-39.481495 7.529453 250.697388
-28.378712 6.128624 204.056015
-27.714867 6.058181 201.710541
-27.695551 6.128624 204.056015
-28.688311 6.427582 214.009964
-15.214848 4.543635 151.282913
-13.665720 4.150092 138.179657
-13.434413 4.150092 138.179657
-6.769534 2.332131 77.649635
-6.252245 2.196090 73.120071
-6.129845 2.196090 73.120071
-6.007445 2.196090 73.120071
-5.150647 2.196090 73.120071
-5.028247 2.196090 73.120071
-4.905847 2.196090 73.120071
-4.783447 2.196090 73.120071
-4.661047 2.196090 73.120071
-4.538648 2.196090 73.120071
-4.416248 2.196090 73.120071
-4.293848 2.196090 73.120071
-4.171448 2.196090 73.120071
-4.049048 2.196090 73.120071
-3.926649 2.196090 73.120071
-3.804249 2.196090 73.120071
-3.681849 2.196090 73.120071
-3.559449 2.196090 73.120071
-3.437049 2.196090 73.120071
-3.314650 2.196090 73.120071
-3.192250 2.196090 73.120071
-3.069850 2.196090 73.120071
-2.947450 2.196090 73.120071
3.285234 2.689090 89.534782
3.349661 2.622198 87.307549
3.394482 2.546192 84.776894
3.502553 2.521826 83.965630
3.625760 2.509818 83.565796
3.747799 2.497923 83.169754
3.868686 2.486140 82.777443
9.271333 3.400398 113.218178
8.781034 3.156058 105.082741
8.956937 3.156058 105.082741
11.313831 3.764727 125.348694
11.050084 3.610012 120.197380
11.024754 3.537327 117.777298
11.147095 3.513745 116.992119
11.120523 3.444848 114.698151
10.885636 3.314853 110.369919
10.667830 3.194314 106.356468
10.845867 3.194314 106.356468
8.068532 2.196090 73.120071
8.190932 2.196090 73.120071
8.313332 2.196090 73.120071
8.435732 2.196090 73.120071
8.558131 2.196090 73.120071
8.680532 2.196090 73.120071
9.106481 2.271818 75.641457
9.354058 2.301579 76.632393
9.608210 2.332131 77.649635
9.825140 2.352954 78.342934
30.590097 2.196090 73.120071
30.712496 2.196090 73.120071
30.834896 2.196090 73.120071
31.324495 2.196090 73.120071
31.446896 2.196090 73.120071
31.569296 2.196090 73.120071
31.691694 2.196090 73.120071
31.814095 2.196090 73.120071
31.936495 2.196090 73.120071
32.058895 2.196090 73.120071
32.181293 2.196090 73.120071
34.153687 2.321858 77.307564
34.434792 2.332131 77.649635
34.564774 2.332131 77.649635
34.694756 2.332131 77.649635
34.824738 2.332131 77.649635
34.262093 2.196090 73.120071
34.384491 2.196090 73.120071
34.506889 2.196090 73.120071
34.629292 2.196090 73.120071
34.751690 2.196090 73.120071
34.874088 2.196090 73.120071
34.996490 2.196090 73.120071
35.118889 2.196090 73.120071
35.241291 2.196090 73.120071
35.363689 2.196090 73.120071
35.486088 2.196090 73.120071
35.608490 2.196090 73.120071
35.730888 2.196090 73.120071
35.853287 2.196090 73.120071
39.246204 2.395735 79.767349
170.227936 9.760402 324.978088
170.771927 9.760402 324.978088
-37.219395 2.318490 73.120071
-37.096996 2.318490 73.120071
-36.974598 2.318490 73.120071
-36.852196 2.318490 73.120071
-36.729797 2.318490 73.120071
-89.650764 5.677936 179.069565
-89.351013 5.677936 179.069565
-80.064430 5.104933 160.998322
-79.794930 5.104933 160.998322
-38.309608 2.600176 82.003822
-35.671967 2.429859 76.632393
-33.914600 2.318490 73.120071
-33.792202 2.318490 73.120071
-33.669800 2.318490 73.120071
-48.211834 3.331962 105.082741
-43.915520 3.057350 96.422073
-40.016323 2.796169 88.185013
-36.901733 2.588082 81.622406
-34.367378 2.419294 76.299202
-32.813004 2.318490 73.120071
-32.690601 2.318490 73.120071
-32.568203 2.318490 73.120071
-32.445805 2.318490 73.120071
-52.416546 5.736471 180.915649
-47.688953 5.249412 165.554886
-45.687756 5.058524 159.534698
-46.261826 5.152201 162.489044
-45.989826 5.152201 162.489044
-47.937138 5.402308 170.376862
-47.651936 5.402308 170.376862
-47.366734 5.402308 170.376862
-47.081528 5.402308 170.376862
-47.255112 5.455271 172.047226
-46.967113 5.455271 172.047226
-47.141285 5.509284 173.750671
-46.391113 5.455271 172.047226
-44.785881 5.299407 167.131592
-42.872860 5.104933 160.998322
-40.734787 4.881032 153.936996
-39.105000 4.715573 148.718796
-38.208450 4.636981 146.240143
-34.800049 4.451501 140.390533
-34.020710 4.381399 138.179657
-33.789406 4.381399 138.179657
-16.901028 2.318490 73.120071
-16.778627 2.318490 73.120071
-16.656229 2.318490 73.120071
-16.533829 2.318490 73.120071
-32.308392 5.012952 158.097458
-27.787933 4.347169 137.100128
-25.377550 4.003149 126.250481
-24.809246 3.946367 124.459694
-24.427660 3.918575 123.583221
-106.561745 17.388678 548.400513
-96.588562 15.898219 501.394775
-101.552238 16.861748 531.782349
-52.048656 9.121929 287.685516
-49.930035 8.832344 278.552643
-47.215397 8.430874 265.891174
-41.157871 7.419169 233.984238
-40.229794 7.321548 230.905487
-37.851105 6.955471 219.360214
-37.483906 6.955471 219.360214
-37.116707 6.955471 219.360214
-36.749508 6.955471 219.360214
-37.315186 7.133816 224.984833
-37.418293 7.226463 227.906723
-37.036789 7.226463 227.906723
-36.655281 7.226463 227.906723
-39.901154 7.949110 250.697388
-42.518536 8.560579 269.981812
-18.124226 5.620583 177.260788
-14.956969 4.715573 148.718796
-13.665720 4.381399 138.179657
-13.434413 4.381399 138.179657
-6.769534 2.462114 77.649635
-6.252245 2.318490 73.120071
-6.129845 2.318490 73.120071
-6.007445 2.318490 73.120071
-5.273046 2.318490 73.120071
-5.150647 2.318490 73.120071
-5.028247 2.318490 73.120071
-4.905847 2.318490 73.120071
-4.783447 2.318490 73.120071
-4.661047 2.318490 73.120071
-4.538648 2.318490 73.120071
-4.416248 2.318490 73.120071
-4.293848 2.318490 73.120071
-4.171448 2.318490 73.120071
-4.049048 2.318490 73.120071
-3.926649 2.318490 73.120071
-3.804249 2.318490 73.120071
-3.681849 2.318490 73.120071
-3.559449 2.318490 73.120071
-3.437049 2.318490 73.120071
-3.314650 2.318490 73.120071
-3.192250 2.318490 73.120071
-3.069850 2.318490 73.120071
3.285234 2.838968 89.534782
3.268358 2.701154 85.188431
3.378162 2.675181 84.369316
3.485875 2.649703 83.565796
3.591555 2.624706 82.777443
3.730121 2.624706 82.777443
3.868686 2.624706 82.777443
8.981604 3.477736 109.680107
8.575629 3.254021 102.624664
8.747418 3.254021 102.624664
11.076478 3.891172 122.719002
11.050084 3.811217 120.197380
11.024754 3.734481 117.777298
11.147095 3.709584 116.992119
11.048312 3.613232 113.953362
10.817600 3.477736 109.680107
10.603566 3.352034 105.715767
10.780530 3.352034 105.715767
8.068532 2.318490 73.120071
8.190932 2.318490 73.120071
8.313332 2.318490 73.120071
8.435732 2.318490 73.120071
8.558131 2.318490 73.120071
8.680532 2.318490 73.120071
8.802931 2.318490 73.120071
8.925331 2.318490 73.120071
9.441111 2.419294 76.299202
9.781473 2.473056 77.994743
30.712496 2.318490 73.120071
31.324495 2.318490 73.120071
31.446896 2.318490 73.120071
31.569296 2.318490 73.120071
31.691694 2.318490 73.120071
31.814095 2.318490 73.120071
31.936495 2.318490 73.120071
32.058895 2.318490 73.120071
32.181293 2.318490 73.120071
34.153687 2.451267 77.307564
34.587833 2.473056 77.994743
34.718391 2.473056 77.994743
34.848953 2.473056 77.994743
34.979511 2.473056 77.994743
34.262093 2.318490 73.120071
34.384491 2.318490 73.120071
34.506889 2.318490 73.120071
34.629292 2.318490 73.120071
34.751690 2.318490 73.120071
34.874088 2.318490 73.120071
35.241291 2.318490 73.120071
35.363689 2.318490 73.120071
35.486088 2.318490 73.120071
35.608490 2.318490 73.120071
35.730888 2.318490 73.120071
194.956009 11.839099 373.379089
195.581024 11.839099 373.379089
279.444977 16.861748 531.782349
-37.219395 2.440890 73.120071
-37.096996 2.440890 73.120071
-36.974598 2.440890 73.120071
-36.852196 2.440890 73.120071
-36.729797 2.440890 73.120071
-89.650764 5.977690 179.069565
-89.351013 5.977690 179.069565
-80.064430 5.374437 160.998322
-79.794930 5.374437 160.998322
-38.309608 2.737447 82.003822
-37.818890 2.712100 81.244522
-33.914600 2.440890 73.120071
-33.792202 2.440890 73.120071
-33.669800 2.440890 73.120071
-40.016323 2.943787 88.185013
-36.393909 2.687218 80.499161
-34.071106 2.525059 75.641457
-32.813004 2.440890 73.120071
-32.690601 2.440890 73.120071
-32.568203 2.440890 73.120071
-32.445805 2.440890 73.120071
-47.688953 5.526544 165.554886
-45.687756 5.325578 159.534698
-46.261826 5.424200 162.489044
-45.989826 5.424200 162.489044
-45.717827 5.424200 162.489044
-45.445827 5.424200 162.489044
-45.173828 5.424200 162.489044
-44.901829 5.424200 162.489044
-44.629829 5.424200 162.489044
-44.357830 5.424200 162.489044
-44.917637 5.526544 165.554886
-44.640507 5.526544 165.554886
-43.541832 5.424200 162.489044
-42.872860 5.374437 160.998322
-40.734787 5.138716 153.936996
-37.822868 4.801751 143.842758
-36.389000 4.649314 139.276321
-36.155857 4.649314 139.276321
-34.020710 4.612706 138.179657
-17.023428 2.440890 73.120071
-16.901028 2.440890 73.120071
-16.778627 2.440890 73.120071
-16.656229 2.440890 73.120071
-16.533829 2.440890 73.120071
-16.411428 2.440890 73.120071
-31.736561 5.184191 155.299271
-27.572523 4.541191 136.037338
-25.196283 4.184383 125.348694
-23.635836 3.958200 118.573090
-23.280052 3.931635 117.777298
-107.479744 18.306675 548.400513
-106.561745 18.306675 548.400513
-105.643745 18.306675 548.400513
-101.552238 17.751928 531.782349
-100.662056 17.751928 531.782349
-149.657822 26.627892 797.673523
-148.322540 26.627892 797.673523
-46.072243 8.743486 261.922638
-40.229794 7.708074 230.905487
-37.851105 7.322670 219.360214
-37.483906 7.322670 219.360214
-37.116707 7.322670 219.360214
-37.214691 7.415362 222.136932
-37.315186 7.510431 224.984833
-37.418293 7.607969 227.906723
-37.036789 7.607969 227.906723
-38.663792 8.024844 240.394760
-41.074715 8.614906 258.070831
-51.301987 12.464120 373.379089
-14.956969 4.964522 148.718796
-13.774178 4.649314 139.276321
-13.541036 4.649314 139.276321
-6.769534 2.592096 77.649635
-6.252245 2.440890 73.120071
-6.129845 2.440890 73.120071
-6.007445 2.440890 73.120071
-5.273046 2.440890 73.120071
-5.150647 2.440890 73.120071
-5.028247 2.440890 73.120071
-4.905847 2.440890 73.120071
-4.783447 2.440890 73.120071
-4.661047 2.440890 73.120071
-4.538648 2.440890 73.120071
-4.416248 2.440890 73.120071
-4.293848 2.440890 73.120071
-4.171448 2.440890 73.120071
-4.049048 2.440890 73.120071
-3.926649 2.440890 73.120071
-3.804249 2.440890 73.120071
-3.681849 2.440890 73.120071
-3.559449 2.440890 73.120071
-3.437049 2.440890 73.120071
-3.314650 2.440890 73.120071
-3.192250 2.440890 73.120071
3.156401 2.871635 86.023613
3.236932 2.816412 84.369316
3.330132 2.776368 83.169754
3.452989 2.763272 82.777443
3.574693 2.750299 82.388817
3.730121 2.763272 82.777443
3.868686 2.763272 82.777443
8.816298 3.593949 107.661453
8.476488 3.386206 101.438248
8.646292 3.386206 101.438248
11.076478 4.096599 122.719002
11.050084 4.012422 120.197380
11.099245 3.958200 118.573090
11.147095 3.905424 116.992119
11.048312 3.803985 113.953362
10.817600 3.661335 109.680107
10.603566 3.528998 105.715767
10.780530 3.528998 105.715767
8.068532 2.440890 73.120071
8.190932 2.440890 73.120071
8.313332 2.440890 73.120071
8.435732 2.440890 73.120071
8.558131 2.440890 73.120071
8.680532 2.440890 73.120071
8.802931 2.440890 73.120071
8.925331 2.440890 73.120071
9.047730 2.440890 73.120071
31.446896 2.440890 73.120071
31.569296 2.440890 73.120071
31.691694 2.440890 73.120071
31.814095 2.440890 73.120071
31.936495 2.440890 73.120071
32.058895 2.440890 73.120071
33.727119 2.558138 76.632393
34.742245 2.615239 78.342934
34.718391 2.603616 77.994743
34.979511 2.603616 77.994743
34.384491 2.440890 73.120071
34.506889 2.440890 73.120071
34.629292 2.440890 73.120071
34.751690 2.440890 73.120071
35.363689 2.440890 73.120071
35.486088 2.440890 73.120071
212.408295 13.623572 408.112030
213.091446 13.623572 408.112030
229.807709 14.645341 438.720428
307.389465 19.527121 584.960571
-37.219395 2.563290 73.120071
-37.096996 2.563290 73.120071
-36.974598 2.563290 73.120071
-36.852196 2.563290 73.120071
-36.729797 2.563290 73.120071
-97.619728 6.835440 194.986862
-38.172337 2.874718 82.003822
-33.914600 2.563290 73.120071
-33.792202 2.563290 73.120071
-49.575169 3.774169 107.661453
-39.227825 3.030490 86.447372
-35.738163 2.771124 79.048729
-32.935402 2.563290 73.120071
-32.813004 2.563290 73.120071
-32.690601 2.563290 73.120071
-32.568203 2.563290 73.120071
-32.445805 2.563290 73.120071
-24.923553 3.015635 86.023613
-45.954811 5.592632 159.534698
-45.276154 5.542248 158.097458
-46.694180 5.749435 164.007645
-46.419640 5.749435 164.007645
-46.145096 5.749435 164.007645
-44.619541 5.592632 159.534698
-44.352486 5.592632 159.534698
-43.688267 5.542248 158.097458
-43.818378 5.592632 159.534698
-43.551323 5.592632 159.534698
-43.681374 5.643941 160.998322
-43.411869 5.643941 160.998322
-43.142365 5.643941 160.998322
-43.269833 5.696200 162.489044
-37.822868 5.042538 143.842758
-35.820419 4.806169 137.100128
-35.590919 4.806169 137.100128
-17.390627 2.563290 73.120071
-17.268227 2.563290 73.120071
-17.145828 2.563290 73.120071
-17.023428 2.563290 73.120071
